# 3D point list with one line of data per point:
#   POINT3D_ID, X, Y, Z, R, G, B, ERROR, TRACK[] as (IMAGE_ID, POINT2D_IDX)
# Number of points: 365, mean track length: 6.7057165506914469
11991 -0.52615982815434337 -1.2726619570152198 5.608246457834114 0 0 0 0.84449811085442283 13 944 31 2279 15 1452 16 2005
11992 -0.49325415583271259 -1.2491141224441471 5.7865100282259618 0 0 0 0.35269534390163942 14 1744 15 1460 16 2025 17 1842
11993 -0.58975336101272513 -0.82262624361701053 5.3322218460232476 0 0 0 0.52211495695365051 14 2069 15 1470 16 2038 17 2103
11995 -0.4709659576157208 -0.9139955243369029 5.8466550895534048 0 0 0 0.42073168767409036 13 974 15 1482 16 2072
11996 -1.5447914925583996 -0.19743880210605991 5.7797616046613127 0 0 0 0.97237321585955061 13 1265 15 1490 16 1754 17 1601
11997 -1.2439833185165696 -0.22979492227324896 5.6750001037990927 0 0 0 0.47306146407420152 13 1277 15 1502 16 1773
11998 -1.6765842088064389 0.20582476695668767 6.1396869748756844 0 0 0 0.66810988511831582 14 1800 15 1528 16 1790
11999 -0.47245564213811936 -0.19715841726238464 6.1897900510635147 0 0 0 0.18824736347148718 14 2126 15 1560 16 2340
12000 -0.49108324238566486 -0.13178752398953425 6.1186079387173695 0 0 0 0.67676102243177272 14 1533 15 1562 16 2109
12001 -0.45935554400329254 -0.21064929761511447 6.3659989026943382 0 0 0 0.77147208540254331 13 1348 15 1567 16 2356
12002 -0.43650990481342455 -0.14698045803182702 6.4153100498878404 0 0 0 1.3060762233186782 13 1352 17 1916 16 2119
12003 -1.5320628050947454 0.72504736399418945 6.50059141948124 0 0 0 1.2393038501555547 11 3096 15 1587
12004 -0.44432844104609409 -0.024692585666001805 6.4169165845431362 0 0 0 0.95138050160178489 13 1380 15 1589 16 2134 17 2164
12005 -2.9063644675671907 2.6208045186340696 7.0467390961861138 0 0 0 0.63811068076207123 14 1896 15 1603 16 2146 17 1946
12006 -2.5798274906141132 2.3860522437113265 7.3874150937718124 0 0 0 1.2228134775180837 14 2214 15 1604 17 2196 18 168 20 333
12007 -2.3206962945592102 -1.5271587401853037 5.0870711953587229 126 122 119 0.40832354181803682 13 1496 15 1669 16 1931 17 1753
12008 -0.65137398485121945 -1.3150293251901424 4.7812497611791223 150 108 91 0.97928737005756861 15 1709 17 2059
12009 -0.69857993090447479 -1.0632696044914749 4.9314307530341184 0 0 0 1.0784498795352155 13 1578 15 1718 16 2533 17 2306 24 429
12010 -0.5867336531678069 -1.1159550377061236 5.3934931714521976 0 0 0 0.52817963891545416 14 2062 15 1724 16 2539
12011 -0.5241525567616182 -1.2465028124606889 5.504355909894314 0 0 0 0.14048195076751527 13 1232 15 1725 17 2310
12012 -1.963759431728241 -0.31846332507635539 5.8292061899055785 0 0 0 1.4182474311887818 13 1590 15 1731 17 1537 16 2011
12013 -1.6626932453341254 -0.34854756199455678 5.6998057167455078 0 0 0 0.3826424290036825 14 2068 15 1738 16 2030
12016 -1.5025940941175733 0.44909665477617111 6.217562509130989 0 0 0 1.7176839841196114 13 1666 15 1790 16 2101
12017 -4.180314566988546 1.9842844502133599 7.8576649886440491 0 0 0 0.969278341696447 14 2450 15 1791 16 2334 17 2352
12018 -0.48569231132500729 -0.11886427219424697 6.1813099430197349 0 0 0 0.75689179920590721 14 2136 15 1797 16 2351 17 2364 21 612 22 1279
12019 -0.48102424957570333 -0.11998819376941415 6.1752820381653972 0 0 0 0.32743269331760577 14 2137 15 1798 16 2352
12020 -0.49981380948654996 -0.15407333666984055 6.2796490353458942 0 0 0 0.81613462721443097 14 1828 15 1799 16 2354 17 2138
12021 -0.43072170992130382 -0.17357023417149209 6.3413329191339525 0 0 0 1.3068970598082283 13 1349 15 1815 16 2614 17 2378
12022 -0.45952798746190238 -0.029786244368790609 6.3635260241397935 0 0 0 1.6813092737902346 14 2157 15 1831 16 2366 17 2391 25 782 26 1682
12023 -2.5342254230334929 1.9829313857214386 7.8401866493774568 0 0 0 1.7280624541854437 11 3945 15 1857 16 2398 17 2185
12024 -2.6227793622346063 2.1531535028672333 7.6119625347565467 0 0 0 1.4949427262541004 14 2198 15 1861 16 2654 17 2410
12026 -0.61027041393669224 0.81908071664710413 9.0278122262922391 0 0 0 0.7009006950634511 13 2077 14 2225 15 1890
12027 -2.3255253851440609 2.8263488967392165 6.7008173324174489 0 0 0 0.60985512919219975 14 2269 15 1906 16 2449
12028 -2.2689445680553577 2.7844032934769078 6.6324953247737977 0 0 0 0.32276965776503297 14 2270 15 1907
12029 -0.94456762735959454 1.5299792668767094 7.1114373312797428 0 0 0 0.95850577387286084 14 2240 15 1912 16 2180 17 1992
12030 -2.1714834808323076 2.8583093428213338 6.6520059930405981 0 0 0 0.50043519373369383 14 2285 15 1916 16 2468
12032 -2.0355940592140178 2.7795370030633508 6.7446659111359155 0 0 0 0.29159948477098968 14 2287 15 1929 16 2469 17 2484
12033 -1.494221580585233 2.2541590484751999 7.4248050255672933 0 0 0 1.4885365109894955 14 2276 15 1935 16 2476 18 191 19 263
12034 -2.1030709496114293 -1.7597092287205838 4.9299112723208953 159 156 151 0.98303142000951393 13 2168 15 1964 17 2010
12035 -1.7402813449902572 -1.7232441241759995 4.8685112289772707 58 57 53 0.22398223387613822 14 2314 15 1969 16 2219
12036 -0.93484280952317944 -1.5853157877201418 4.7103610286960986 147 118 114 0.96495275507761502 13 1862 15 1983 16 2509 17 2280
12037 -1.0126170662218379 -1.4336866735520097 4.8253618312632236 185 114 82 0.47968837625507965 13 1870 15 1990 16 2248
12039 -2.5201317447959499 -0.4488469255189621 5.8612537947028116 0 0 0 0.20742402288111852 13 1900 14 2366 15 2024 16 2276
12040 -1.0576687929004236 -0.88746720118818501 5.0917691181951259 0 0 0 0.55579818503869416 13 1905 14 2374 15 2031 16 2286 17 2075
12041 -1.0427610774033669 -0.87753094515367824 5.1464665938225869 0 0 0 0.025637959630294693 13 1909 14 2375
12042 -1.9572639383613735 -0.35637299685662782 5.7462654319826507 0 0 0 0.38933220161794241 13 1916 15 2043 12 2485 10 3256
12043 -1.7299299429380137 -0.38557129203197515 5.6705332827986794 0 0 0 0.82868711066038292 13 1928 15 2048 16 2298 17 2086
12044 -0.46764732511302853 -1.0420694315355672 6.0034906927477696 0 0 0 0.72399463316772195 14 2071 15 2064 16 2561 20 640 21 599
12045 -0.98979908175371534 -0.39373169021159432 5.4367731262737724 0 0 0 0.57758530679048292 13 1961 14 2419 15 2069
12046 -4.5609248313655018 2.1343629693985537 7.7381563699655578 0 0 0 1.0980807520542377 14 2443 15 2091 16 2594
12047 -4.5609248313655018 2.1343629693985537 7.7381563699655578 0 0 0 1.0980807520542377 14 2444 15 2092 16 2593
12048 -1.8456579646718319 -0.63118180971197724 10.941175527054408 0 0 0 1.0678568721321433 13 1975 15 2096 16 2605 17 2618 18 262 19 496
12049 -1.4964101949367066 -0.54274451483868336 10.658022015603713 0 0 0 1.0569223674542807 13 1982 15 2102 16 2908 14 2446
12050 -1.372268872548877 1.3818870759811637 7.0552355632653434 0 0 0 0.7784998302278 15 2165 16 2412 17 2220
12051 -0.47280012314565639 0.63213975644663911 6.5222203069437104 0 0 0 2.1778182038177181 14 2821 15 2167 25 884 26 1693 16 2669 20 696
12052 -0.34768286181573543 0.51330141285256392 7.021808514423312 0 0 0 0.35229653107809178 14 2499 16 2690
12053 -1.7854124711548329 1.7161097968342349 7.4889497234393545 0 0 0 1.4344071449355038 15 2180 16 2686
12054 -2.2693079143895996 2.2378582138535403 7.4540330597261075 0 0 0 0.56476367406466743 14 2526 15 2191 16 2684
12055 -2.0639832150997379 2.3748893998188056 7.265624038156294 0 0 0 0.82583150279133444 13 2131 15 2212 16 2982
12056 -2.1656729486504909 2.5853459134115035 6.939850066402065 0 0 0 0.40970875956472697 14 2862 15 2221 16 2709 17 2458
12057 -2.1037174711818718 2.5575088715233489 6.96002377671301 0 0 0 0.55418625577582803 14 2591 15 2225 17 2461
12058 -2.128736220864456 2.7548598030009055 6.7577617587232526 0 0 0 0.3317843650699262 14 2600 15 2237 16 2719 17 2473
12059 -2.1033111877855961 2.6613135720908767 6.9239634216825365 0 0 0 1.0373592946542372 14 2602 15 2239 16 2721 17 2474
12060 -0.37587807351399577 1.048644683753124 8.6965748194534385 0 0 0 0.38524706510697232 14 2576 15 2246 16 3012
12061 -0.37587807351399577 1.048644683753124 8.6965748194534385 0 0 0 0.38524706510697232 14 2577 15 2247 16 3013
12062 -2.0245316427616462 2.7754051274241727 6.8049455171296387 0 0 0 0.67545188027476621 14 2288 15 2255 16 2470 17 2485
12063 -1.7852550060028909 2.5495243989267045 7.0043309003231613 0 0 0 0.22419642260574094 14 2884 15 2256 16 2735
12064 -1.794426913887913 2.5585766151557414 7.0182888427208354 0 0 0 0.58387141529536435 14 2885 15 2257 16 2736 18 402
12065 -1.5514031412242857 -1.5717931485625667 4.8791130702336982 33 31 32 0.498557924511975 14 2639 15 2289 16 2503 17 2274
12066 -1.1426417552492281 -1.6076323065055804 4.7842777959280838 237 229 215 0.72566941006513741 14 2642 15 2290 16 2770 17 2497
12067 -2.6392723903836592 -0.76665661990047351 5.6674235584791459 168 164 165 0.35938038188389915 14 2658 15 2307 16 2523
12068 -0.5360081786630867 -1.6572116721755008 5.6914463604009304 124 111 223 1.5496076305378796 15 2313 22 1314
12069 -0.55005653992633641 -1.1312109818556384 5.4545606169723406 0 0 0 0.91845111767330734 14 2691 15 2337 16 2803 17 2734 16 3045
12071 -0.54887406020055007 -0.88652044465812374 5.3440410411869133 0 0 0 0.74985939028844883 14 2709 15 2351 17 2555
12072 -0.53239135927544046 -0.69839605904470214 5.5717901773961858 0 0 0 0.86227972343833126 14 2739 15 2384 16 2853 20 777 22 1341
12073 -0.47923585919484313 -0.87115632023769374 5.8537390383675731 0 0 0 0.94926793654765729 13 1964 15 2386
12074 -5.2738633551108203 1.6462742368265253 8.3653972816041033 0 0 0 1.8554486759304338 14 2743 15 2394 16 2863 17 2328
12075 -7.9499084444535137 1.7198480100427715 14.100976446175141 0 0 0 2.4161668596509225 13 2269 15 2395
12077 -5.3072189206869878 1.993212502918394 8.1165425213654938 0 0 0 0.98354913078591399 14 2754 15 2399 16 2868 17 2583 18 333 19 462
12078 -1.9791654038265809 -0.66417268059884338 11.011091275529196 0 0 0 1.0996082694141851 13 2282 15 2420 16 2898 18 347
12079 -4.1811758325028494 2.1091479625761962 7.8744181842471832 0 0 0 0.86490857421359324 13 2500 15 2431 16 2893 17 2601 18 335 19 469 20 656
12080 -4.0812594270790621 2.1780594582683497 7.7805512323315185 0 0 0 0.15478443043361118 14 2779 15 2433 16 2900 17 2600
12081 -2.2258911569641069 1.0023351180040536 6.9332459690439219 0 0 0 0.56399367478838869 15 2437 16 2613
12082 -3.2466175664895611 2.4017595110329526 7.4068589995085041 0 0 0 1.1477462335089925 13 2355 15 2458 16 2935 17 2631 18 348 19 485 20 666 22 1285
12084 -2.1384244545595545 2.3147388196135457 7.4468852575428395 0 0 0 1.6919499977145893 14 2547 15 2501 16 2697 17 2466 19 518 18 382 20 706
12085 -0.63652594254507899 0.9426226547642006 8.8481230702849079 0 0 0 0.71162412477445569 14 2556 15 2507 16 2991
12086 0.032955743253439918 0.56049896192214732 9.2811788599312433 0 0 0 0.51075566329000066 13 2395 15 2519 16 3005
12087 0.033122896147339119 0.56297192163515419 9.283324561975359 0 0 0 0.93809146070350735 13 2394 14 2584 15 2520 16 3006
12088 -2.2064241348501206 2.7968278284085226 6.6622764359887592 0 0 0 0.86329843852368737 14 2871 15 2521 16 2988 17 2694
12089 -0.032406346459600222 1.1003283541329509 8.663207810615738 0 0 0 0.71839944090494434 13 2425 14 2877 15 2547
12090 -2.2044728463850181 -1.9800488653452222 4.8105844635728259 181 176 172 1.3390729729308937 13 2429 15 2550 16 2762 17 2489
12091 -2.9091936879314968 -1.2798934413434451 5.357032524403329 168 164 161 0.92161483989305915 13 2435 15 2551 16 2768 17 2494
12092 -1.7233381388362492 -1.5730609196973642 4.9047153952395242 71 71 63 0.46643976001530307 13 2436 15 2552 16 3020 17 2495
12094 -0.61212727511008946 -0.86145286930116638 5.2461737972578053 0 0 0 1.5179749391578763 14 2934 15 2582 16 3060 18 449 24 613
12095 -0.51916832619447029 -0.89057323180006831 5.5722258919679666 0 0 0 1.2999423697261216 14 2713 15 2592 17 2756 22 1414 21 746
12096 -5.3952055928692779 1.8011093471802195 8.1888987633805677 0 0 0 1.2113722510968483 14 2950 15 2604 16 3076 17 2767 18 485 19 630
12098 -4.380386834515833 2.0298280460465437 7.8974830069365618 0 0 0 1.1774489283599254 13 2494 14 2966 15 2620 16 3084 17 2782 19 638 22 1352
12099 -4.3038030423707108 1.888092429705085 8.1215882934712536 0 0 0 1.1800178076301393 14 2968 15 2621 16 3085 17 2784
12100 -1.7505205413123683 0.82914804532719721 6.713925731413565 0 0 0 2.1453385636684237 14 2980 15 2633 16 2912
12101 -2.1760581398872509 1.4340941621118726 7.2899027403342371 0 0 0 1.4724532446633056 14 2990 15 2641 16 3109 17 2801
12103 -2.8161063583915733 2.1255386919907271 7.5351817100289953 0 0 0 0.90131378733685286 14 2993 15 2653 16 2937 17 2641 17 2806
12104 -2.8336929674141493 2.1372028653192068 7.5567541693993263 0 0 0 1.0189139329951102 14 2994 15 2654 16 2938 17 2642 17 2805 22 1452
12105 -1.5155844059366914 1.2517194954991899 6.9514629783839572 0 0 0 1.1861224186988868 15 2655 16 3123 17 2653
12106 -2.4218553426706149 2.6788235383285013 6.8402323067271933 0 0 0 0.84238705720084506 14 3015 15 2674 16 2972 17 2672
12107 -0.64769495873206129 1.3261976053874154 6.9605650606819083 0 0 0 0.22400314631978829 14 3090 16 3223
12108 -0.57780335753541279 -1.0681493303091592 4.6973022213993438 234 167 150 1.0944274249583161 13 2453 15 2712
12109 -5.4549353862167189 1.935260313392049 8.0763446803288943 0 0 0 1.3082846852195948 11 4288 14 3058 15 2725 16 3186 17 2860 18 484 19 629
12110 -2.4971415347552379 1.3524467193938776 7.3899858270340166 0 0 0 0.6121160226821668 14 3070 15 2735 16 3097
12111 -0.69772678228897689 -0.11644014931221455 10.103868970262948 0 0 0 1.3833120703517012 14 3074 15 2745 16 3215
12112 -0.47359369283024222 -1.1144896321420448 5.8588750209555664 0 0 0 0.70218947452173597 14 3106 15 2765 16 3235
12113 -2.2389628479944532 0.26527364576939949 6.3534434090982668 0 0 0 0.35950622639786273 14 3109 15 2766 16 3182
12114 -4.8920579233687089 2.2170876524993592 7.8049903335484352 0 0 0 1.1151802314386146 11 4327 15 2769 16 3239 17 2913 18 593 19 746 20 952 22 1469
12116 -1.3525764258302326 0.96536604063192388 6.7241178319722135 0 0 0 0.83191764955224201 14 3117 15 2775 16 3243
12117 -3.5312500730566598 2.608907930221227 7.1132930524843907 0 0 0 0.76174573003317436 14 3118 15 2776 17 2917
12119 -0.58519681498066778 1.4357075704273268 6.9721945752454468 0 0 0 1.4081310712262036 14 3132 15 2789 16 3257
12121 -0.78797067475226312 -1.3013838402623705 4.766684167761027 172 103 74 1.7267624931214425 14 3138 15 2799 16 3272
12122 -1.7988993806077032 -0.15289326289185914 5.7799407297340331 0 0 0 0.7059590984390387 13 2647 15 2807
12123 -1.7374928090390978 2.0617349151682531 7.6381581793646776 0 0 0 1.2906284858457213 14 3155 15 2819 16 3290 17 2965
12124 -2.2896401645230346 -1.1243456819671294 5.3430687866126698 131 129 132 1.0408891791802228 14 3166 15 2829 16 3268
12125 -1.4103188872868586 -1.3825517606652939 4.880011087869411 92 83 78 1.7198321265922354 14 3167 15 2831 17 2945
12126 -1.1153478648810506 -0.44427846844658758 5.4841408867999073 0 0 0 0.84567679598512824 14 3172 15 2839 16 3301
12127 -1.2752619748920342 0.34562695669752014 6.142524639351449 0 0 0 0.53027026382761522 13 2681 14 3173 15 2840 16 3277
12128 -1.2543229489241343 1.475008985826767 7.1113223998864701 0 0 0 1.1023425831707998 14 3176 16 3287 17 2931
12129 -1.4742720286266016 -1.8481158522405579 4.6321737958705453 155 154 149 1.2308376854901195 14 3178 15 2850 16 3311
12130 -5.7308378154302098 -1.0918112447865278 7.6658252045977129 183 179 176 2.3434733090799007 14 3201 15 2853
12133 -2.0027674093445906 1.432466409237346 7.2933135134108333 0 0 0 1.7832377541878934 14 3194 15 2870 16 3304
12134 -2.3443697904819762 2.0533078015470281 7.6350192663708185 0 0 0 0.79598339691578024 13 2705 14 3195 15 2871 17 2997 16 3325
12135 -0.78917106392644576 -0.7302536774862316 5.3291906291993341 0 0 0 1.528378513639338 14 3204 15 2876 16 3329
12136 -2.5525223748845094 2.5099545655146946 7.1815284302627269 0 0 0 1.1565344214562467 11 3246 12 1893 13 1777 14 2228 15 1882 35 1915 33 3416 32 4480 31 3220 16 2416 17 2211 20 565
12137 -2.1589683728910396 -1.3735674441556083 5.1018246509348621 136 133 131 1.2758675902258489 12 2410 13 1846 15 1973 34 4584 35 3393 33 4271 32 5028 31 3777 16 2227 14 1992 17 2028
12138 -3.1101157271000344 2.091370531650774 7.6258804441745278 0 0 0 1.6206683469093282 4 4087 5 4739 6 4832 7 3985 8 2670 9 3591 10 3077 11 3933 12 2612 13 2348 15 2129 34 4432 33 4156 32 5235 31 3576 16 2639 17 2397 14 2481 19 296
12139 -1.8870520187062199 -1.8464272527629604 4.8369438961194779 127 125 119 2.3462014591169948 15 1357 2 3141 3 2959 1 3551 4 2854 5 3486 7 3112 9 2344 11 2821 12 1562 8 1500 16 1581 13 819 17 1429
12140 -1.6616144271678284 2.4772665465362418 7.183686556906971 0 0 0 1.6262561913976883 2 3609 3 2737 1 3240 4 2653 5 3299 6 3419 7 2926 8 1835 9 2808 15 1932 10 2845 12 1965 14 2290 35 2324 38 2407 39 2305 41 3180 40 1787 42 1956 31 3267 32 4532 30 2059 29 3218 28 1436 16 2484 18 188
12141 -1.6939239264953641 2.5350903118662109 7.1559181891432155 0 0 0 1.6094858182613205 2 2852 3 2738 1 3266 4 2654 5 3313 6 3438 7 2927 8 1836 9 2809 15 2258 34 3782 37 2939 35 2344 39 1932 41 2734 40 1460 33 3483 32 4956 31 3732 30 2475 29 3239 28 1725 14 2619 16 2751 18 301 19 330
12142 -1.8240003342948448 2.5071501025552232 7.0595510091696134 0 0 0 1.173215836218068 6 5008 7 4498 8 3125 9 3999 15 2754 10 3451 12 2948 14 3092 16 3225
12144 -1.6697512615476422 0.81628438258129854 6.9391498382819217 0 0 0 0.84391634878891397 13 2682 14 3174 15 2841
12145 -1.661445818181287 -1.5995753749127604 4.8918868751964011 53 53 45 0.47114366592529766 12 684 15 466 16 397 17 286
12146 -1.5604820973431603 -1.7594145353774584 4.805460600414067 78 73 67 0.69461735991480777 14 975 16 792 17 1051
12147 -1.6245456307013855 -1.5325980835759536 4.9025476647256774 44 43 38 0.49322278578769052 15 745 16 814 17 662
12148 -1.6245456307013855 -1.5325980835759536 4.9025476647256774 44 43 38 0.49322278578769052 15 746 16 815 17 663
12149 -0.97729557791487798 -0.97706311378364841 5.0059852796699262 0 0 0 0.95601406578048653 14 1062 15 844 16 907
12151 -0.97254969144950698 -0.1670394678218784 5.6606979725969255 0 0 0 0.95121466832742085 14 1518 16 1041 17 875
12152 -0.36873813876336997 0.62771769700060853 7.2985660892851705 0 0 0 0.71854832353824494 32 1476 16 1100 17 1375
12153 -2.1941206706279739 -2.0105771915923736 4.818310763563658 174 169 165 0.62067212517961057 14 1300 16 1178 17 1029
12154 -2.1357327904748451 -2.0131909864194566 4.798919376473914 175 170 166 0.14505459816877536 15 1051 16 1179 17 622
12155 -1.6562755930142097 -1.9643504261060307 4.7071812892516194 96 93 86 0.77035231872298604 14 1306 16 1186 17 1037
12156 -1.6054949363940265 -1.5167045151646656 4.9129025684640926 40 39 34 0.50494869962894229 15 747 16 1243 17 672
12157 -1.5285418445849777 -1.2038363786187423 5.019862405416383 18 20 19 0.35346207229211957 14 1355 16 1275 17 1087
12160 -0.47641539504296193 -1.3393544021695323 5.7448357916924655 0 0 0 0.37711755546939818 14 1076 16 1353 17 1191
12161 -0.56191893462542541 -1.035664425060876 5.3546671156415613 0 0 0 0.32362935612611093 14 1086 16 1363 17 1554 21 438
12162 -0.4960667007898989 -1.2055666471759325 5.7207653440164288 0 0 0 0.19823334340455009 14 1092 16 1371 17 1566
12163 -0.53155860011461242 -0.99073208606069829 5.5675597374621795 0 0 0 0.74224372993940058 15 906 16 1389 17 1577
12164 -0.54278213669346198 -0.90048283445979393 5.5491777068220491 0 0 0 0.4782249991041207 14 768 16 1399 17 1232
12165 -1.1723553345491022 -0.33315011321126836 5.5742072242930121 0 0 0 2.0125460002077582 15 1222 16 1421 17 835
12166 -2.1732720356609372 -1.5479585086708061 5.0347510395903541 125 121 120 0.5144938629458029 14 1660 16 1597 17 1054
12167 -2.4237612665049713 -0.65648065098918384 5.6790371633251846 177 171 173 0.32762310282064505 14 1716 15 1428 16 1648
12168 -0.69803400482334044 -1.1853266907294226 4.8485162311823995 207 199 188 1.7436814107828689 14 1054 15 820 16 1649
12169 -2.1352900045583056 -0.64671576192263036 5.5923457054494561 0 0 0 0.49052123993730556 15 1435 16 1653 17 1496
12170 -0.60588717595454478 -1.0611847904000917 5.3461435722221351 0 0 0 0.19392729758547075 15 1172 16 1684 17 1551
12172 -0.57899915589533035 -0.85125872053315044 5.3268205319853346 0 0 0 0.76141395953863178 15 1194 16 1717 17 1849
12174 -0.47679020169612085 -1.0813990642098259 5.7716611597283451 0 0 0 0.85342127440326188 15 908 16 1730 17 1594
12175 -0.4944600437074449 -1.0778342473684874 5.7951036871189459 0 0 0 0.68534235599507021 14 1454 16 1731 17 1593
12176 -0.47170097967213964 -1.0714020279043059 5.7978324290594978 0 0 0 0.86079151579673974 14 1467 15 910 16 1743
12178 -0.47670084414972796 -0.95684316208014197 5.9602937609055129 0 0 0 0.71693762905920644 14 1482 16 1765 17 1882 21 483 22 1188
12179 -0.87291718954468733 -0.20813104161127577 5.5996473116005046 0 0 0 0.63411235895940188 15 1513 16 1787 17 1303
12181 -1.9983256237328051 -1.8499806190523609 4.8568148325588423 157 154 149 0.23193530573968893 14 1966 16 1919 17 1748
12182 -2.1670416916293074 -1.4836269771344803 5.0590792581699056 133 129 130 0.076496232756843766 14 1986 16 1934 17 1759
12183 -1.1302568124239618 -1.5916990130163939 5.4729799868009312 123 75 53 0.68100833368353619 15 1410 16 1964 17 1794
12184 -0.59021496663253281 -1.70008295031927 5.7124583633443056 111 106 186 0.30705258666661539 14 2044 16 1982 17 2070
12185 -1.4817677815589294 -0.82226213688178518 5.2697667266372399 0 0 0 0.12618907661128489 15 2020 16 1985 17 1811
12186 -0.67490748897918684 -1.0286827824213378 4.9450129198574411 0 0 0 0.36132139921836204 14 1733 16 1995 17 1816 24 281
12187 -0.54690372633177875 -1.2080225975606589 5.4594132272594944 0 0 0 1.3747012540720058 14 1418 15 865 16 2004 20 384
12188 -1.6446191065341571 -0.43795279809081727 5.6171711595809546 0 0 0 0.44810840104830724 15 1734 16 2013 17 1827
12189 -0.63247174072277046 -0.86490824212275785 5.1126987942606359 0 0 0 1.7634535999368461 14 1437 15 1456 16 2014
12192 -0.55632669097683896 -0.94777955721615237 5.5133227491540104 0 0 0 0.40513727203800576 15 1472 16 2041 17 1851
12193 -0.51785670318426302 -0.97872298992366968 5.651356198901432 0 0 0 0.93869838912830827 14 1463 15 1476 16 2042 17 1870 19 217 20 509 24 376 22 1176 21 533
12194 -0.52799762954889429 -0.97733590891950073 5.6646002944232858 0 0 0 0.45615017300316946 14 1464 16 2043 17 1871
12195 -1.424663562808359 -0.33734849940572764 5.6383625716206769 0 0 0 0.50004804661099334 15 1750 16 2050 17 1864
12196 -0.5567239667473719 -0.59784866620382215 5.5371539561296412 0 0 0 1.6185260385402565 14 1778 16 2078 20 408 21 536
12197 -1.2475076769270925 0.12833223383996761 5.969503778778475 0 0 0 0.45555079857388708 15 1544 16 2095 17 1645
12198 -1.5123932372998439 0.54776523378854525 6.3612892205674161 0 0 0 0.6979114774350087 15 1794 16 2107 17 1652
12199 -0.45608589055287685 -0.022082239990326991 6.4341539072980369 0 0 0 0.44888364851394175 15 1588 16 2135 17 2165
12200 -2.6346593026758738 2.6656325407641694 6.9853938526973902 0 0 0 1.5882890872788458 14 1909 16 2151 17 1951
12201 -0.32601614260565326 0.8965954086968424 7.5391035720794966 0 0 0 0.086282531664111886 14 1596 16 2184
12202 -1.4664400221588145 2.3463755260065668 7.3481996734101003 0 0 0 1.1140925276768339 14 2291 15 1643 16 2200
12204 -2.0376439759160663 -1.98553281286762 4.7847632217992206 172 167 163 0.42908812257783396 15 1959 16 2206 17 1998
12205 -1.0937289378854629 -1.7656089984135792 4.6916866326689606 51 48 41 0.71188264006590884 15 1674 16 2224 17 2022
12207 -2.0214693554752707 -0.98001887073491312 5.3086170863187645 156 152 153 0.60038510565542114 15 1999 16 2258 17 2050
12208 -0.6498185960102969 -1.2638567338562603 4.8007443225304645 170 163 135 2.2112842895949574 14 2043 16 2268 17 1802
12209 -2.0091710661545723 -0.39625599400457517 5.7421210152287641 0 0 0 0.33966470188253645 14 2059 15 2033 16 2289
12210 -1.8708034474170572 -0.047407185777937622 5.9903813417790026 0 0 0 0.79715962959724729 15 2067 16 2313 17 1874
12211 -1.1692535849441323 -0.26439402838950193 5.6389466675355546 0 0 0 1.369350371077265 15 2074 16 2319 17 1886
12212 -0.44334735949387633 -0.20327225813190899 6.1464897159770713 0 0 0 1.2448346824432144 15 1561 16 2339 17 2137
12213 -0.4340671103357025 -0.32007808736290461 6.5020430420760116 0 0 0 1.3289719845543719 15 1571 16 2342 17 2367 18 209 20 425
12214 -0.47368127363009893 -0.12056157191181972 6.2475818245673018 0 0 0 0.84497439362717464 15 1810 16 2353 17 2149 13 1347 21 552
12215 -4.2435401460506048 2.6285305992097223 7.3376555427430867 0 0 0 0.9291432372644346 15 1581 16 2361 17 1907
12216 -0.4840899775027741 -0.020603612819854174 6.4061700725377806 0 0 0 1.18883602330514 14 2156 16 2367 17 2392
12217 -1.4421115151285535 0.20395694355842797 9.8092457744565706 0 0 0 0.60583481248437965 15 2124 16 2387 17 2181 18 274 19 307 20 594
12218 -3.3424488180456686 2.6192686645293857 7.1671912307785917 0 0 0 0.95128157244973421 15 1853 16 2388 17 2173
12219 -2.9582343606204797 2.718175121156591 7.0805519051677956 0 0 0 0.8896384062631314 15 1869 16 2400 17 2189
12220 -2.697086650085923 2.3901254276230088 7.2104384397664747 0 0 0 0.54768719710390412 14 2503 16 2402 17 2194 13 1738
12221 -2.6035621132672477 2.352168349350459 7.334463323365723 0 0 0 0.53839555266934258 14 2202 16 2404 17 2195
12222 -1.6348475837471901 1.7977639698689636 7.5039377920037733 0 0 0 1.1875520439211309 15 2200 16 2436
12223 -1.7295629172929663 2.0801185550467611 7.4714390802233854 0 0 0 0.89418085392884339 14 2238 15 1893 16 2441 17 2237
12224 -1.7188724858430597 2.2289823331059937 7.4333728460123192 0 0 0 0.43562127751739871 14 2256 16 2453 17 2235
12225 -1.7188724858430597 2.2289823331059937 7.4333728460123192 0 0 0 0.43562127751739871 14 2255 16 2454 17 2236
12226 -8.8653586030096445 1.3693491872118684 9.1170743936952121 0 0 0 0.88928135362746075 15 2017 16 2525 17 2503
12227 -7.0212853225480174 1.7712919611671434 8.4168824989308035 0 0 0 0.84060663264990565 15 2348 16 2544 17 2311
12230 -0.4398271987267019 -1.0364105984534027 5.9600529373019677 0 0 0 1.9636459518847149 15 2063 16 2560 19 626 18 479 20 899 24 568 21 790 23 233
12231 -5.874321602757913 1.9490482181669417 8.2567262300497202 0 0 0 0.51396485399008074 14 2421 15 2073 16 2567 17 2320
12232 -4.1477790245644268 2.1388566618618139 7.7215564256222908 0 0 0 0.96000819761494072 14 2777 16 2602 17 2357
12233 -1.8441765251471909 -0.63326485524960263 10.938242601093558 0 0 0 0.97191249180796802 15 2095 16 2606 17 2619 18 263 19 497
12234 -4.1383380834755457 2.5111868939476105 7.364518992463851 0 0 0 0.42059161915381887 15 1822 16 2607 17 2360
12235 -4.060917617124371 2.5887722422085195 7.2459834735047011 0 0 0 0.67383595002207208 15 2117 16 2619 17 2368 19 361 20 418
12236 -4.095428851298669 2.6052506732037877 7.2756174687608226 0 0 0 0.42855398827726771 15 2116 16 2620 17 2369
12237 -3.9935514332226707 2.5791962196883347 7.2825885237410031 0 0 0 1.3770784886834617 15 2118 16 2621 19 363 20 657
12239 -3.4750391613239731 2.0187060543307491 7.8757631245464736 0 0 0 1.3701998902118198 15 2122 16 2625 17 2372 19 375
12240 -2.7254461540514465 2.6778800597996226 6.8975664957179479 0 0 0 0.66669201044653637 14 2541 16 2675 17 2432
12241 -2.7064039742074155 2.676355348772955 7.0978539607542857 0 0 0 1.9100708742741386 15 2186 16 2680 17 2434
12242 -0.31847895736944298 0.60315320411502171 7.3914515516140167 0 0 0 2.0519535497832186 14 1894 16 2702 17 2470
12244 -0.33751402664142838 0.87604770084397199 7.3723398532175057 0 0 0 0.90698713589919577 12 1473 16 2728
12245 -9.0747083675880127 1.2361506073623467 9.409215026598222 210 203 197 0.25350394102003571 15 2314 16 2784 17 2505 18 310
12246 -9.0321447297103941 1.1067422833450833 9.5340945706115718 212 205 199 0.1964372434524993 14 2666 15 2311 16 2785 17 2302
12247 -7.6165207465139018 0.96340433445827567 9.6850032506360026 0 0 0 0.80099610848992253 14 2913 15 2330 16 2794
12248 -6.4804973058352466 1.9384424002871807 8.2604909348302868 0 0 0 0.84943648647612879 12 2522 15 2380 16 2832 17 2560
12249 -0.54396476759161294 -0.83454389934689266 5.5354129207358431 0 0 0 0.62945984800353338 14 2413 16 2841 17 2565 18 321 22 1266 21 660
12250 -0.47409340152103413 -1.0036103785583124 5.9560052894072477 0 0 0 0.38249001110184916 15 2378 16 2848 17 2575
12251 -0.47100809933604343 -1.0033081608898025 5.9529634656305239 0 0 0 0.55907836462342042 15 2379 16 2849 17 2576 21 676 22 1346
12252 -5.7755506498392615 2.0372158537959821 8.1169256048537832 0 0 0 0.73856356129593836 15 2391 16 2861 17 2327 18 332 19 459
12253 -5.1026026688645034 2.1065036532989496 7.9300530934250792 0 0 0 1.592345016372785 8 2927 15 2407 16 2877
12255 -2.1261178941282441 -0.64575156730340721 10.856276602680763 0 0 0 0.64405395577478597 15 2415 16 2889 19 649
12256 -4.4416069021903377 2.4267731877553862 7.3497914395838544 0 0 0 1.0871685161837941 15 2430 16 2890 17 2598
12257 -2.1092489561737273 -0.44883694402518337 10.773608341616583 0 0 0 0.83354321719503355 14 2759 16 2896 17 2613 18 346 19 491 20 829 21 712
12258 -1.5456688418329971 -0.2340894101918054 10.210232888541864 0 0 0 0.41242944345097404 15 2439 16 2913 17 2798 18 514 19 669 20 839
12259 -1.5574879880509285 0.062921389578972434 9.9414061592273857 0 0 0 0.32113824791677781 15 2441 16 2921 17 2635 18 271 19 509
12260 -1.9575982779113248 1.9064420588627859 7.6635665670386892 0 0 0 0.18487826203287205 15 2482 16 2968 17 2822
12261 -1.4934835530107404 1.5703669712857944 7.2460020486941916 0 0 0 0.61330822582911138 15 2484 16 2969 17 2679
12262 -2.1614415804063971 2.7272944081898212 6.6899217094392851 0 0 0 0.58244501988617692 14 2872 15 2522 16 2989
12263 -1.2805944133416118 -1.6946200446842992 4.7532791602379341 47 47 45 0.45882371675049977 14 3039 16 3021 24 485
12264 -10.693052645363629 0.82069976403981248 10.121028896521663 213 206 200 0.67390362080616983 15 2556 16 3024 17 2713
12266 -6.8579967518930047 1.7450633700718194 8.5348758201387405 0 0 0 1.0012481891111651 15 2590 16 3058 17 2740 18 455 19 603
12267 -6.5086262771375267 1.8004172680526604 8.4134311219647167 0 0 0 0.68945772920130555 15 2721 16 3065 18 467
12268 -4.6067764172644585 2.3536649803949761 7.5437692029044481 0 0 0 1.4677858984062071 15 2618 16 3083 17 2781
12272 -2.0899211572119838 -2.0711579370394126 4.7683690515467561 181 176 172 0.89617510397446976 15 2762 16 3168 17 2838
12274 -7.2422548782551743 1.638286481851154 8.615617024349385 0 0 0 0.96502779716140097 15 2716 16 3175 17 2850 18 581
12275 -2.258941445300938 0.27230262034929303 6.3760822093511837 0 0 0 0.6898186874504505 14 3110 16 3183 17 2769
12276 -5.0675191280819227 2.3879525730293421 7.7350698640093167 0 0 0 0.54718551097616253 15 2729 16 3190 17 2866
12277 -5.0675191280819227 2.3879525730293421 7.7350698640093167 0 0 0 0.54718551097616253 15 2730 16 3191 17 2865
12279 -4.3510951658048427 2.1965727524102876 7.6547098457717206 0 0 0 0.76418607949984485 15 2732 16 3194 17 2867
12280 -0.4881310854064857 0.084713473435530373 6.0892249442730737 0 0 0 1.0135989075562462 15 2736 16 3199 17 2878 24 669
12283 -1.7350637344958875 2.4412137560793727 7.1689038555560503 0 0 0 0.8458504852711346 14 3093 15 2755 16 3226 18 550 19 698
12284 -1.8648100609236413 -0.11409870343206782 5.9226983414181786 0 0 0 0.55437403348284464 14 3144 16 3236
12285 -2.505188617627518 2.0398980182130142 7.7249934345142819 0 0 0 1.1567238705854137 15 2782 16 3248 17 2928 18 663 19 802
12286 -8.2377103572691954 7.8428546084043598 14.12478452596635 0 0 0 1.5486543292668955 12 2733 16 3254
12287 -1.8884878101087168 2.5961213877146863 6.8422012104225933 0 0 0 1.6173251085958469 14 3130 15 2787 16 3255
12288 -0.79400105064532456 -0.92268904592278622 4.9934526846705412 0 0 0 0.42067518395705006 15 2803 16 3274
12290 -2.3065773582491507 2.5373529472592073 7.2223401590876364 0 0 0 0.36509976599662508 15 2818 16 3289 17 2963
12291 -1.1571445753582241 -1.169777204018402 4.9457295595358346 107 112 106 0.40934479133655677 16 3297 17 2950
12292 -1.5945233392693634 -1.8668375172626628 4.7158668211734796 90 87 80 2.2250287448009254 16 3310 18 679 17 2986
12293 -0.39509199996049132 -0.94008832425450739 6.1227612778565721 0 0 0 1.5713880273149932 15 2858 16 3316 17 3002 25 1150
12294 -2.4337041168861151 0.88053283058471854 6.9920243323396019 0 0 0 2.9847408369877462 15 2869 16 3317
12296 -0.59848707350835917 -0.86172840406402218 5.6546596894742116 0 0 0 1.9003228208625857 15 2878 16 3330 17 3001 25 1154 26 2081 24 730
12297 -1.0874592921615673 0.11230066273300635 6.9818167661420247 0 0 0 2.1418744831442074 15 2881 16 3334
12298 -1.0874592921615673 0.11230066273300635 6.9818167661420247 0 0 0 2.1418744831442074 15 2880 16 3335
12299 -0.91565420219173688 -0.95285305596607961 5.0110778339366329 0 0 0 0.48065992974118921 13 1574 14 2049 16 1989 13 1215 14 1726 15 1438 17 1813
12300 -2.1668729463504448 2.8598374225587415 6.6459677047063881 0 0 0 0.89944371266113088 2 3719 3 3560 1 4115 4 3389 5 3374 6 3500 7 2976 8 2386 9 2839 16 2467 14 2286 15 1917
12301 -0.69387916327726284 1.3403330972040444 6.8837606230109918 0 0 0 2.0079834050382876 7 4000 9 3646 10 3144 11 4001 12 2334 14 2575 16 2456 34 4692 35 3292 33 4137 32 5211 31 3999 30 2736 29 3914
12302 -1.7986835461051485 -1.9741753518736096 4.7343907691727471 162 156 151 1.2671553985206605 14 1964 16 1918 2 3131 3 2284 1 3538 4 2219 5 2870 6 3005 7 2479 8 1494 9 2325 10 1887 11 2813 39 2335 37 2967 38 2424 41 3326 40 1871 31 2586 45 2378 48 3898 49 2141 50 3818 12 1558
12303 -2.6191316183684972 2.4577786564361492 7.188227615340729 0 0 0 1.4582846042121804 10 3439 11 4252 12 2937 14 3005 15 2667 16 3126 17 2814 18 521
12304 -2.2671061046751082 2.7142658449364867 6.7876736827470703 0 0 0 1.1113745695316395 2 4846 3 4598 1 5293 4 4331 5 4979 6 5084 8 3197 16 3253 14 3127 15 2785 17 2933
12305 -3.4390114312454498 2.0117281972338001 7.8354814613984569 0 0 0 1.2827729155165064 14 2466 15 2121 16 2624 2 3503 3 3352 1 3925 4 3187 5 3817 6 3894 7 3410 8 2187 9 3150 10 2699 11 3587 12 2241 13 2017 17 2371
12306 -2.3676074477194855 2.4127428924343541 7.3281826079519945 0 0 0 1.024375902385017 12 2856 14 3012 31 4322 32 5564 30 3003
12307 -3.4381518225061805 -1.7397344677768976 8.5296667873151542 119 72 88 0.14352311823189443 15 810 16 1294
12309 -0.56545202662805982 -0.7721163538883995 5.4330861052223227 0 0 0 0.92389508837845957 15 1753 16 2311 24 451 25 633
12310 -0.68555468724023505 -0.063697827543835212 6.2068838960800559 0 0 0 2.6550872176007654 15 2771 16 3278
12311 -1.2124525132280732 -1.592755367584777 5.6243152155472158 216 112 80 1.595882798760905 15 2875 16 3328
12312 -2.2585752470117302 -1.5752043659024737 5.0275866943328493 128 124 123 0.65324006836058135 16 354 17 28
12314 -0.48603529105095689 -0.93042439122438103 5.876208126870905 0 0 0 0.44395119446755965 15 586 16 592 17 848
12315 -0.57814839441688526 0.73982606387584204 7.0336689322191814 0 0 0 1.4221719868005613 15 624 17 928
12316 -0.49092351541956158 -1.3460941289068771 5.701661493844199 0 0 0 0.071733699322591313 16 1351 17 1163
12317 -0.59542904804012386 -0.91808298297246305 5.1964458336174486 0 0 0 0.55804454617537136 16 1360 17 1175 20 170
12318 -0.54819833521284311 -0.96228065663901163 5.4673174276761447 0 0 0 0.0049951039848488013 16 1385 17 1211
12319 -0.94276358740519661 -0.55136605756774881 5.3394540284875127 0 0 0 0.064801555614137196 16 2054 17 1225
12320 -1.8707701234559186 0.34766714557147099 6.2999802892911392 0 0 0 1.5780007031291658 16 1789 17 1298
12321 -0.52168256267831536 -1.1699100977986863 5.4780992207261754 0 0 0 0.56182851754344976 15 867 16 1689 17 1557
12322 -0.48437580150966897 -1.2882244143200443 5.6363881638668634 0 0 0 0.093174199157132764 16 1349 17 1565
12323 -0.50507040864813457 -1.1112060646852815 5.6657123617328677 0 0 0 0.31326572580641576 16 1727 17 1581 20 307
12324 -0.50570666683798371 -1.1368643719449774 5.6685800883108728 0 0 0 0.58837768011002411 16 1368 17 1582 20 190
12325 -0.5389516989859825 -0.92606927638596903 5.60068163641367 0 0 0 0.86219277782860659 16 1402 17 1589 20 198
12326 -0.54643483200770526 -0.71367258327854899 5.5840999931896871 0 0 0 0.57460277948168581 16 1756 17 1624 21 381
12327 -0.35570749947499558 0.30708735561068479 7.081682548871477 0 0 0 0.71790592990910129 16 1467 17 1670 19 174 20 336
12328 -0.33242597052549144 0.70577073588507921 7.3483196131353594 0 0 0 0.84956124527748 13 740 16 1506 17 1729 25 325 26 1268
12329 -0.52662517909202733 -1.1791079833513878 5.4432067573155489 0 0 0 0.20243059650482953 15 1174 16 1687 17 1820
12330 -1.6446191065341504 -0.4379527980908185 5.6171711595809475 0 0 0 0.44810840104821298 16 2012 17 1826 15 1733
12331 -0.57843250107067123 -1.0354343722192583 5.3118886887680876 0 0 0 0.46701117012205245 16 2016 17 1835 25 475
12332 -0.55729386056461605 -1.0602553931764025 5.3667115455736907 0 0 0 0.85773769524925714 15 863 16 2018 17 1837
12334 -0.53615608522580571 -1.0421745607666915 5.5052844434313393 0 0 0 0.67201477880713723 16 2023 17 1852 20 395 21 452
12337 -1.9067357845633164 2.3699700519002813 7.3584554955315529 0 0 0 1.0600225435850401 15 1909 16 2177 17 1981
12339 -1.2660922279860543 -0.91322822570476625 5.1243044032630598 0 0 0 0.98934774150821181 15 2022 16 2278 17 2067 13 1897 25 745 24 427
12340 -0.57107552763410563 -1.0719238477563664 5.4189259020788345 0 0 0 0.22014000573692405 16 2020 17 2088 24 289
12341 -0.5636180740574952 -1.0730717622127124 5.4106088151062695 0 0 0 0.1517328395397006 16 2019 17 2089
12343 -0.46511829620314893 -0.25212203513432585 6.2673786228611723 0 0 0 2.0823698859180753 15 1565 16 2112 17 2140 21 546
12345 -2.2865416524785589 -0.17550110113132636 10.343958047461143 0 0 0 1.990305505886294 16 2343 17 2145 21 570
12346 -0.46472707516474965 0.02150052575473281 6.2875322288322923 0 0 0 0.95588393716069009 16 2365 17 2163 25 788 26 1681
12347 -2.5840746783460622 2.1443708085686395 7.660591846259063 0 0 0 2.4263336801628563 16 2397 17 2200 19 300 20 566
12349 -1.7637364539321827 1.9712396919139985 7.7237978875613029 0 0 0 1.4050085164938808 16 2442 17 2230
12351 -1.7896797678178551 0.058328162922564909 10.00682488759842 0 0 0 1.1865503479437352 16 2628 17 2394 19 386 20 569
12352 -3.0146125454118278 1.9760028029409213 7.9104134729406574 0 0 0 0.59213235730828817 13 2349 15 2130 16 2640 17 2398
12353 -2.3355260931114268 1.5712979624485801 7.4015410892110713 0 0 0 0.59634584763051435 16 2931 17 2399
12354 -2.906794563004214 2.1282232347148451 7.7114081093045241 0 0 0 0.89347377470050748 16 2646 17 2405 19 380 18 267 20 553
12355 -1.0175837019547025 0.12986273796487363 9.8348428973476789 0 0 0 0.47034650056443772 16 2650 17 2427 18 283 19 416 20 615
12358 -7.432149291325608 1.5469186051397437 8.5985950756933445 0 0 0 0.48794594241466666 15 2341 16 2796 17 2521
12359 -1.9476102481137467 -0.4312174112938234 5.6961053134062611 0 0 0 0.54575817098811985 15 2571 16 3043 17 2527
12360 -0.4881107590249712 -1.3748319976562406 5.7265307858412546 0 0 0 0.72335078292152388 16 2811 17 2530 21 729
12361 -0.49478355436292937 -1.1850897093386479 5.5832458700425454 0 0 0 0.77478476836561982 16 2820 17 2547 20 755
12362 -0.43181560177648814 -0.5388784851269206 6.3844263679555482 0 0 0 0.7106270165369587 16 2884 17 2597 24 577
12363 -2.3278872670122861 -0.47785245630145257 10.862667145731221 0 0 0 0.75109218376498443 15 2414 17 2606 18 342
12364 -2.1796551086484004 -0.10289727649708799 10.393745025125371 0 0 0 0.62378031588413063 16 2906 17 2616 18 343 19 489 20 683 22 1378 21 711
12365 -2.2020842199708417 -0.098319846165852626 10.427449216797445 0 0 0 0.52934022379648071 16 2907 17 2617 18 344
12366 -3.8010107878240089 2.6812918771026744 7.1573018068623808 0 0 0 0.88950204247965858 15 2450 16 3103 17 2621
12367 -1.3101232954656359 -0.24815247514111549 10.263434191336403 0 0 0 1.1220249476521944 16 2923 17 2638 18 363 19 511
12368 -1.2158791757653602 -0.20801461534487306 10.247509081131394 0 0 0 0.62504997508521531 16 2925 17 2645 18 370
12369 -1.2712233660382894 0.46198825461056608 9.4876493788106124 0 0 0 1.5168020556938906 16 2955 17 2664 19 525 20 728
12370 -1.199350033656162 0.41388810591939929 9.5092661821268507 0 0 0 1.2728467029876804 15 2145 17 2665 18 375 19 526 20 730
12371 -1.0564800486378307 0.13713190691556601 9.7671928663084326 0 0 0 0.90519181658605985 13 2015 16 2649 17 2666 18 377 19 540 20 857
12372 -0.71219886379021413 0.88817900177351072 8.9540244464680612 0 0 0 0.91410244946548769 16 2985 17 2705 18 417
12373 -8.3562721904828443 1.750544666131282 8.6896387723746518 0 0 0 0.30758477205408857 16 3032 17 2718 18 435
12374 -7.887177689000187 1.8884870100034667 8.5679389730992188 0 0 0 1.1525364893225318 16 3039 17 2725 18 577 19 592
12375 -0.49962046296050944 -1.1684381894141282 5.6994403587602678 0 0 0 0.88360288393180786 15 2346 17 2743 19 598 20 760 22 1410
12376 -0.49986587875035793 -1.1685832381519599 5.6995726689565211 0 0 0 1.0506297764771069 15 2347 17 2744 19 599 20 761
12377 -2.8136708027586494 2.44096730518035 7.117307233852447 0 0 0 0.32664011802045601 15 2660 16 3120 17 2812
12379 -1.6952203451673227 -0.69100131578280499 5.4600520881651775 0 0 0 0.74904763001211716 16 3234 17 2849
12381 -6.8747187343363469 1.8950999868935459 8.2741198667683182 0 0 0 0.44081551812801517 16 3178 18 584 19 602
12382 -0.35905455660118618 -0.30608502067795695 6.5331237301318899 0 0 0 0.7950938817511245 16 3197 17 2874 18 654
12383 -1.393843918606932 0.12812625178066719 9.8515574155958081 0 0 0 0.49832134836964964 16 3207 17 2884 18 615 26 1991 19 773 20 941
12384 -1.0513876923196319 -0.24478390430677582 5.6130816100276393 0 0 0 1.6276390741104088 16 3238 17 2910 24 688
12385 -1.2576055585100585 0.25628679334953053 9.6666565060925151 0 0 0 1.0608684659172452 16 3246 17 2927 18 668 19 807
12386 -2.6052553378602328 -1.6842686079091551 5.1126053695153031 131 127 124 1.0054441209904337 16 3321 17 2995 18 698
12387 -1.8384591373927204 -2.0101796743931279 4.7205506205034444 124 93 96 1.7938860503725316 10 2856 12 2399 13 1824 14 2299 16 2207 15 1652 17 1999 8 1939 9 2852 10 2391 11 3291 41 3855 37 3366 38 3151 2 3872 42 2697 45 2870 46 1727 47 1755 48 4689 49 3360 50 5991 51 5394 52 4527
12388 -2.3574425586077985 2.2648106537154908 7.4724945354240653 0 0 0 1.2088049194294117 7 2869 8 1784 10 2301 11 3198 12 1879 13 1757 17 2213 14 2216 15 1873 16 2417
12389 -3.1641896995875118 2.688851315990751 7.0468737951582714 0 0 0 0.89608395842638877 17 2925 14 3121 15 2780 16 3212
12390 -3.1641896995875118 2.688851315990751 7.0468737951582714 0 0 0 0.89608395842638877 17 2924 14 3122 15 2781 16 3213
12391 -1.4329482104332911 -0.34642243791649541 5.6454090341309948 101 96 179 1.6378743993268063 16 2049 17 1863 2 4499 3 4275 1 4932 4 4010 5 4667 6 4767 7 3859 8 2541 9 3483 10 2979 11 3828 12 2503 37 3802 34 4635 36 4584 35 3238 38 3220 39 3161 41 4369 40 2822 42 3266 33 4014 32 5105 31 3873 46 2471 30 2209 29 3390 28 1541 13 1948 14 2076 15 1749
12392 -0.51626519925255676 -1.065100643872551 5.5775328006397462 0 0 0 1.1062509253740775 13 1922 15 2345 17 2558 14 2392 16 2554 21 658
12393 -4.2233410333759203 1.8525692455415459 8.0574272486538927 0 0 0 1.0876435621665133 2 4545 3 4327 4 3699 5 4359 6 4444 7 3933 8 2621 9 3550 10 3027 11 3886 12 2560 13 2307 14 2764 17 2783 14 2967 16 3086
12394 -1.6385113156429516 1.4227739524516214 7.148522340150369 0 0 0 1.941535874306771 16 2656 17 2202 12 2927 13 2522 14 2820 15 2468
12395 -1.1507378217168678 -1.525056864856138 4.7997633543769167 28 26 45 1.3148095001867188 16 2508 17 2279 2 3905 3 3723 4 2891 5 3511 1 3585 6 3626 7 3131 8 1964 9 2885 10 2424 11 3320 12 2014 37 3408 36 4181 35 2817 39 2371 41 3366 40 1910 42 2733 45 2901 46 1764 47 1797 48 3935 49 2724 50 4979 34 3848 51 4285 44 952 13 1859 15 1980
12396 -1.7064786327909056 2.1500180348840119 7.4896289890409271 0 0 0 1.5321652966101285 13 2553 17 2830 7 4350 8 2995 9 3888 10 3352 11 4180 12 2862 14 3024 18 546 20 855
12397 -1.1370291504753576 0.95823504347756261 8.2637653177092147 0 0 0 1.8509272944658308 16 1854 17 1689
12398 -2.9910392106095069 -2.19562565161594 4.9694574270181144 182 177 173 2.4530984638833475 16 2202 17 2261
12399 -2.7029666608990244 0.82225368459606152 7.0014403151813323 0 0 0 2.7676684240790594 16 3192 17 2779
12400 -3.5738026450644864 -1.7412908421210882 5.2966336767609157 180 175 171 0.041703670526779257 16 3327 17 2994
12401 -2.0196623175396367 -1.2145141137203241 5.1348143820049668 245 245 244 1.2954479524331841 2 3924 3 3744 1 4347 4 3525 5 4172 6 4268 7 3787 9 3414 10 2896 11 3762 12 2421 36 4535 37 3753 35 3179 38 2840 39 2769 40 2776 42 3222 45 3397 46 2408 47 2396 48 4743 49 4108 50 6851 51 6264 52 5323 43 1710 53 5226 13 1856 14 2333 15 1987 16 2513 17 2278 33 3940 32 5035 31 3784 30 2573
12402 -1.9748544020761332 0.31574136526874363 6.3258593300446107 63 63 121 1.0440969071176542 2 4079 3 3863 1 4491 4 3639 5 4294 6 3787 7 3262 8 2091 9 3049 10 2594 11 3501 12 1734 38 3245 46 2510 13 1638 14 2096 15 1522 34 4318 33 4039 30 2232 29 3059 27 1407
12403 -2.6323015195286952 2.2748573610922476 7.4117228168012455 0 0 0 1.6715534644533545 2 4580 3 4362 4 4106 5 4761 6 4531 7 4021 8 2699 9 3638 10 3119 11 3972 12 2657 36 4818 34 4721 37 4076 35 3333 38 3550 39 3492 41 4717 40 3183 42 3549 45 3960 46 3132 44 1676 43 2090 13 2381 14 2504 15 2476 33 4186 32 5260 31 4014 30 2764 16 2959 17 2659 18 364 19 499
12404 -1.4116841041335859 -1.8500146510121629 4.7156628033515124 65 59 58 0.98809282782038166 30 2142 29 3325 34 4212 2 4436 3 3692 1 4303 4 3479 5 4131 6 4233 7 3748 8 2465 9 3383 10 2867 11 3735 12 2000 36 4154 37 3378 38 2815 39 2737 41 3863 40 2344 42 2717 46 1732 47 1761 45 3367 48 4695 49 3368 50 5999 51 5398 35 2790 13 1842 14 1980 14 2310 15 1966 17 2019
12405 -1.3873128145594826 -0.21443514095681995 5.7373749918638515 54 54 78 1.0213817415984432 34 3090 2 1533 3 1514 4 1567 6 2399 7 1824 9 1757 10 973 11 1800 36 3076 37 2321 35 1247 38 1918 39 1700 41 2482 40 1295 42 1386 33 2351 31 1871 45 1720 49 1382 48 2212
12406 -2.5002126340660977 2.4476513536416356 7.2614300460300916 0 0 0 1.5388051471733422 2 4839 3 4585 1 5288 4 4320 5 4969 6 5075 7 4558 8 3192 9 4046 10 3487 11 4334 7 4601 9 4074 10 3522 12 3023 13 2664 14 3152 16 3286 17 2962 37 4156 35 3620 33 4607 32 5649 31 4415 30 3161 18 667 19 803 20 960
12407 0.27084774574021442 2.187828604081353 7.38688292817878 21 23 35 1.1750442649521875 2 3554 3 4028 1 4622 4 3274 5 4470 6 4594 7 3582 8 2817 38 2767 34 4195 36 3763 37 2927 35 2764 39 2658 41 3635 40 2155 32 5338 49 2929 50 5223 51 4562
12408 -2.0666814564785692 -0.43710811392401416 5.7476098582416739 141 85 75 1.3248137240184119 2 4004 3 3807 1 4435 4 3586 5 3595 3 3083 4 2970 6 3711 7 3207 8 2026 9 2976 10 2000 11 2925 40 2817 34 4284 36 4572 37 3796 35 2867 39 3156 41 4361 42 3264 33 4005 32 4657 31 3400 45 3457 46 2480 48 5442 49 4169 30 1828 43 1437 47 2458 50 6911 51 6332
12409 -0.96693137179295785 -0.59149456470042283 5.3155287780128191 81 91 156 1.0846351418106257 40 2416 41 3942 42 2779 45 3432 47 2413 34 4282 2 3998 3 3804 1 4417 4 3582 5 4231 6 4323 7 3210 8 2036 9 2987 10 2538 11 3455 12 2126 36 4241 37 3456 35 3219 38 2893 33 4001 46 2441 44 1159 13 1604 15 1744 16 2032
12410 -1.4940674581044358 -0.29289581106243329 5.6721462290892148 102 97 190 1.7518411793157833 41 4368 45 3461 47 2451 46 2470 2 4015 3 3827 1 4449 4 3606 5 4257 7 3858 8 2551 9 3484 10 2978 11 3840 12 2121 36 4583 34 4642 35 3237 38 3223 42 3276 33 4317 32 5390 31 4158 48 5430 49 4163 50 6910 51 6320 52 4607 30 2654 29 3842 28 1836 53 4488 13 1947 14 2410
12411 -1.6284359969677471 -1.1755196843614415 5.0445296640200388 188 129 136 1.4525759030150776 29 3775 28 1779 13 1875 15 1994 34 4235 2 3938 3 3752 1 4359 4 3534 5 4181 6 4277 7 3794 8 2488 9 3423 10 2904 11 3769 12 2031 36 4195 37 3416 35 2824 38 2844 39 2778 41 3894 40 2370 42 2741 33 3946 31 3794 45 3400 46 2397 47 2382 48 4730 49 3412 50 6034 51 5425 52 4555 44 1145 43 1397 16 2517 17 2289
12412 -2.1307518256260503 -1.997029331895559 4.8049702730507668 172 169 152 1.069030296929566 28 795 27 605 26 757
12413 -2.1364367917477392 -1.9973746207359953 4.8098738043010769 172 169 152 1.3541753152971026 28 796 31 2584 27 606 26 758
