# 3D point list with one line of data per point:
#   POINT3D_ID, X, Y, Z, R, G, B, ERROR, TRACK[] as (IMAGE_ID, POINT2D_IDX)
# Number of points: 312, mean track length: 8.5705074292122223
25647 1.6164974721115013 -2.4934832825946653 7.5294936244833375 231 227 228 0.2829530879595456 66 6894 68 6813 64 7705 69 6893
25648 2.028170956109705 -2.759092870708836 8.2604773584557627 237 235 236 0.087060760587534258 65 7086 68 6816 64 7712
25649 2.8487330932374424 -2.5632249375836151 8.3135390892720782 180 179 175 0.75717476815084217 65 7718 68 7509 64 7714 69 7510 63 7483 61 10344
25650 -0.84094368680494214 -2.0158373180770424 7.6561814109888635 251 246 250 1.1218865291946272 66 7552 68 7511 64 7717 63 7486 61 10965 65 7723
25651 5.5212499299882651 -1.7247267970481408 8.6326204473266976 8 10 12 0.2880167815269114 65 7296 66 7156 68 7058 64 7732 67 7234 69 7110 70 7287 63 7069 62 11014 61 10975
25652 6.0675952411234135 -1.7142547323211901 8.2991521269258239 204 219 81 0.23921320370481494 65 7734 66 7563 68 7524 64 7733 67 7706 70 7686 63 7501 62 11015 61 10976
25653 6.6031564880590494 -1.5280293260291344 7.7875658990459833 215 230 103 0.29690527977685777 65 7735 66 7565 68 7525 64 7734 67 7707 69 7111 70 7693 63 7502 62 11016 61 10977
25654 -6.0761226792062777 -1.2601504416952534 10.441899730505973 23 26 5 2.2066170596897239 32 4962 65 7736 64 7735 66 7567 62 11017
25655 -6.0997524578069493 -1.2611844139140511 10.490272389437692 23 26 5 2.1351466166273538 32 4963 65 7737 64 7736 66 7568
25656 5.3138983781716425 -1.5695625969261409 8.9617820235980155 215 251 89 0.21534792063093369 68 7528 64 7737 67 7710 69 7528 70 7690 62 11252 61 11222
25657 6.2205184887274454 -1.4030823654619524 8.2666182889613307 85 145 213 0.47811732456546796 65 7739 66 7572 68 7531 64 7739 67 7712 69 7530 70 7692 63 7507 62 11020 61 10981
25658 5.4714207216104453 -1.0564119899186131 8.6403983106123974 72 150 237 0.95359378166912412 68 7536 64 7753 67 7720 69 7536 70 7699 63 7513
25659 6.3956458459627017 -0.55835749425811254 8.6737239922043088 35 52 84 0.40574634451054048 65 7768 66 7598 68 7133 64 7765 67 7746 70 7715 62 11037 61 11000
25660 6.7036356667694834 -0.52014166810622731 8.3705533595016934 204 188 80 0.3860290397156993 65 7769 66 7599 68 7553 64 7766 67 7324 69 7176 63 7162 61 10637 61 11004
25661 6.0491274780332747 -0.27686670550755954 8.8992106922068679 35 29 34 0.20247407296216585 65 7772 66 7605 68 7555 64 7771 67 7755 69 7562 70 7719 63 7529 62 11262 61 11234
25662 6.0491274780332747 -0.27686670550755954 8.8992106922068679 35 29 34 0.20247407296216585 65 7773 66 7606 68 7556 64 7772 67 7756 69 7563 70 7720 63 7530 62 11263 61 11235
25663 6.5362656260981993 -0.030287068672647192 8.6419709209651412 107 145 135 0.41994942028275739 65 7427 66 7271 68 7161 64 7773 67 7350 69 7198 70 7398 63 7212 62 11057 61 11021
25664 7.0098936282361795 0.493099132244053 8.5164747079554921 2 32 85 0.60481433161921594 65 7791 66 7631 68 7211 64 7795 67 7774 69 7583 70 7422 63 7555 62 11073 61 11045
25665 1.2658456834938741 1.9427007293253065 9.9029338354596721 124 149 153 1.2774670247467974 66 7328 68 7247 64 7828
25666 1.1027802018787385 2.3537752269380565 9.0835023891635025 23 41 45 0.70137531456968649 65 7836 68 7620 64 7850 67 7833 70 7790
25667 -5.9338717935177359 3.0862711350245422 7.8502433310567188 73 75 60 0.4075867328134048 65 7841 66 7683 68 7625 64 7854 67 7837 69 7635 70 7794 63 7597 61 10760
25668 -0.40468112233356707 3.7715214521437086 7.5616383566669052 30 37 29 0.12976137746303795 68 7705 64 7914 62 11190
25669 0.00036942800068176193 2.0914865889147607 3.2509146306307382 23 30 22 2.2854268972371656 66 7757 64 7916 62 11191
25670 -5.0913414074894305 4.1023375722883033 6.9123864651949489 122 86 70 1.0442655842132331 66 7768 68 7715 64 7927 69 7431 62 11178
25671 -0.24086854503909255 3.8513781373671891 7.1875793618522632 12 20 9 0.3804317958419996 65 7947 66 7775 64 7936 62 11214 70 7893
25672 -5.6389334724569462 4.0727348536827606 6.2008639407900707 204 192 176 0.58204508077633943 65 7654 66 7783 68 7730 64 7946 67 7950 69 7456 70 7900 63 7420 62 10927
25673 -5.3410780684941255 -1.8718727216222832 10.127120923285956 145 146 132 0.88520897312791025 32 5416 64 7979 62 11010
25674 5.6023462121114465 -1.7238145163647747 8.4250166178979775 56 138 219 0.62358073769867695 65 7998 66 7808 68 7766 64 7981 69 7769 70 7937 63 7714 62 11249
25675 6.1760987340473035 -1.6852453173576949 8.1021651539527557 65 89 67 0.33749614273012529 65 7999 66 7809 68 7767 64 7982 67 7994 69 7770 62 11250 61 11219
25676 5.5489715306002338 -1.6058506034015394 8.8516906175637668 9 11 11 0.7525824662477919 65 8002 66 7812 68 7529 64 7983 67 7711 70 7939 67 8202 63 7506 63 7716 62 11253 61 11223
25677 -0.92620040804088177 -0.40517288598618562 8.9726268847875854 225 222 229 0.30970072090079998 65 8011 66 7827 68 7777 64 7990 67 8004 70 7947 63 7721 62 11255
25678 5.5811596434293822 -0.18842281351493939 10.026758971738062 49 138 253 0.45221522803085701 66 7834 68 7787 64 7998 67 8013 70 7958 63 7728 62 11261 61 11233
25679 3.8809510821640112 0.33079569457855129 11.717512489687818 64 50 3 0.43886765898932739 66 7835 68 7789 64 8000 67 8016 69 7794 70 7960 61 11237
25680 3.8927981499937276 0.33099414811147909 11.76142218556374 64 50 3 0.4420265844461696 66 7836 68 7790 64 8001 67 8015 69 7793 70 7959 63 7935 62 11474
25681 6.3230100512388141 0.065443987137446827 10.166858864134356 34 139 236 1.5621094533151807 66 7838 68 7793 64 8002 67 8017 69 7796 65 7779 64 7780 67 7765 69 7571 63 7210 62 10727 62 11056 62 11268 61 11019
25682 -1.6832653630942331 3.3917643739471095 7.7739769216083987 156 162 152 1.0399253785998985 68 7654 64 8060 67 8085 63 7790
25683 -5.4409098168520504 3.399594234787084 6.4774076574021864 223 183 158 0.73682999366316115 65 8115 66 7725 68 7889 64 8093 67 8113 69 7890 70 8066 63 7778 62 11336 61 11101
25684 1.5168517786358355 3.3514694894485455 7.8055789664588113 87 93 79 0.17681315248918358 68 7918 64 8122 69 7918 62 11396
25685 1.913045668930937 3.3079760368359117 7.7965360833923327 71 77 63 0.36303322555894946 66 7973 68 7919 64 8124 69 7919 70 8092 63 7852
25687 1.1649931493968826 3.5414528918675328 7.5514072879322676 130 141 127 0.27829897755202726 65 8170 66 7997 68 7943 64 8147 70 8115
25688 -5.3502964746266244 4.120471446489308 6.5457314671391709 209 172 146 0.73920570020439724 65 8177 66 8014 68 7966 64 8153 67 8179 69 7954 70 8127 63 7882 61 11373
25689 -5.0133622434565179 3.9255600898210514 6.3110825647210405 216 159 141 0.61493573685082636 65 7939 66 7767 68 7955 64 8154 69 7719 70 7886 62 11416
25690 2.329118207956935 3.8191357368105954 7.1290351489555093 11 16 9 0.90837869144277816 66 8019 68 7968 64 8168 67 8187 62 11434
25691 -2.4066548310478839 4.4398954672558189 6.9273928584099957 78 79 136 1.5181243456993267 66 7793 68 7974 64 8173 67 7965 69 7975 70 8146 63 7898 61 11392
25692 2.6275016310904378 -1.8345046533610874 8.5864606089744768 229 227 228 0.20400072293907165 68 7987 64 8183 67 8199 63 7909 62 11446 61 11402
25693 5.5824079897299956 -1.9213958336044628 8.5127457614476221 57 61 54 0.22679043717066749 65 8209 66 8034 68 7988 64 8184 67 8200 69 7986 70 8156 63 7908 62 11447 61 11403
25694 5.2611330254180775 -1.2917719367121037 9.0390924626823725 212 255 76 0.25284593559918933 65 8213 66 8038 68 7993 64 8189 67 8206 69 7990 70 8160 63 7919 62 11455 61 11408
25696 5.375991631324478 -0.74386661598850412 9.1315202758944523 102 159 210 0.27960106796937939 65 8215 66 8043 68 7994 64 8192 67 8209 69 7992 70 8162 63 7924 62 11460 61 11418
25697 6.1661170498942734 -0.57472025120061698 8.6831384769326085 212 236 118 0.46443495893290265 65 8218 66 8047 68 7995 64 8193 67 8212 69 7995 70 8165
25698 6.1812597825442168 -0.57744779395591528 8.7124001726374178 212 236 118 0.1432062470402112 65 8219 68 7996 64 8194 70 8166
25699 6.3388548944438536 -0.36652895164821819 8.7495383128585971 78 87 104 0.20719822725906401 65 8220 66 8052 68 7997 64 8195 67 8213 69 7996 70 8170 63 7929 62 11470 61 11422
25700 6.3388548944438536 -0.36652895164821819 8.7495383128585971 78 87 104 0.20719822725906401 65 8221 66 8051 68 7998 64 8196 67 8214 69 7997 70 8171 63 7930 62 11471 61 11423
25701 2.9334350378953573 0.024686482798138863 10.013238837123748 188 193 196 0.34287820247499828 65 8224 68 8002 64 8198 67 8216 62 11466
25702 5.7115908725133968 -0.22032047705274632 8.9253313604439626 41 150 245 0.46425145471686635 65 8226 66 8050 68 8003 64 8201 67 8217 69 8003 70 8169 63 7933 62 11469 61 11421
25703 0.011559568614840194 0.6085044253074845 11.4250112073134 83 90 83 0.32768219024616313 65 8231 66 8056 68 8008 64 8204 67 8222 69 8008 70 8176 63 7934 62 11473 61 11425
25704 4.4538804625413357 0.38520480499847004 11.429210125167879 24 18 2 1.1625993475109435 65 8232 68 8114 64 8206 67 8223 69 8010 63 8033 62 11580 61 11526
25705 -2.8214426372188171 1.0569988946010158 10.995288972970448 56 46 31 0.55781886110725276 65 8238 66 8065 68 8015 64 8209 67 8234 69 8020 70 8186 63 7940 62 11478 61 11428
25707 2.5927860058630467 3.222433624490487 8.157577240769271 27 34 60 0.91089884926073317 60 9364 64 8240 62 11512
25709 6.6174501589197385 4.1461461608097254 7.9248621628048994 52 35 19 1.5121359097962792 68 7976 64 8283 70 8150 63 8010 62 11564
25710 -4.5602348066566103 -0.43079224516656406 6.1725677307274784 180 191 151 0.94932097669600035 65 8327 66 8157 68 8109 64 8293 67 8328 69 8104 70 8270 63 8021 62 11572 61 11514
25711 -2.0279852711453223 0.32614858071969299 9.3839096221677796 134 133 138 0.63241314346659483 66 8162 68 8110 64 8299 69 8109 61 11518
25712 2.7640790954703482 -0.88149012743524324 9.3443959454425478 200 200 200 0.49037457130617673 66 8210 68 8163 64 8348 67 8392 70 8332 63 8073 62 11628 61 11564
25713 6.6090830267738072 -0.54828283053006754 8.358168802744439 119 118 108 1.1906933761715968 65 8377 66 8212 68 8166 64 8349 70 8333 63 8113 62 11676 61 11603
25714 5.9019614202109416 0.10512192319805277 8.8639484377662612 46 148 248 0.85885769627882758 65 8380 66 8214 68 8168 64 8352 67 8393 69 8175 70 8335 63 8076 62 11679 61 11605
25715 -3.9596368589746143 1.0130548576486331 11.012370389070856 202 195 177 0.32559983136035536 65 8381 66 8215 68 8170 64 8353 67 8394 69 8177 70 8336 63 8077 62 11632 61 11568
25716 -3.957887780912805 1.4443071423500782 10.587199954108941 205 202 187 1.8685537702154484 65 8383 68 8124 64 8355 67 8396 69 8120 70 8286 63 8079 62 11635
25717 -2.6116729069175904 1.2808839910510497 10.218883869841381 137 94 51 1.0757838661042916 65 8384 66 8217 68 8173 64 8356 67 8397 69 8179 70 8338 63 8038 64 8308 62 11636 61 11569
25718 -4.225143791587457 3.3706592937006534 8.1431157643867689 67 66 72 0.42413158649256316 65 8399 66 8235 68 8188 64 8378 67 8412 69 8190 70 8355 63 8098 31 6517 62 11656 61 11587
25719 5.7724285621820997 -2.1882128791928896 8.6012366234426469 54 65 51 0.65816859767560354 65 8414 66 8252 68 8202 64 8393 67 8426 69 8205 70 8371 62 11705 61 11629
25720 -3.8955610736658559 0.36485671934905328 9.0641585584405711 180 181 163 0.64998636678930133 65 8418 66 8256 68 8206 64 8396 67 8430 69 8210 70 8376 63 8116 62 11677 61 11604
25721 3.2533817451068363 0.28532912737876337 10.673411306800194 14 14 9 0.60189208738118138 65 8419 66 8257 68 8207 64 8397 67 8431 69 8211 70 8377 63 8117 62 11678 61 11635
25722 -5.3931416410531687 4.0031260888048159 5.9586283292793469 194 182 166 0.96860960915445971 65 8408 66 8243 68 8195 64 8414 67 8418 69 8197 70 8363 63 8109 62 11661 61 11554
25723 2.0224509935967716 3.9281736128484903 7.1126594064199944 49 53 52 0.44988079914943091 66 8279 68 8229 64 8415 67 8458 69 8234 70 8401 62 11701 61 11627
25724 1.4627240625628655 2.5890473193952563 9.210772240678363 22 26 38 0.42770653163134076 65 8450 68 8243 64 8424 67 8466 61 11642
25725 -5.2866239698086321 2.5432295269295229 5.4711710747413109 159 161 140 1.2963590815966224 65 8452 64 8426 69 8243 63 8145 62 11720
25726 4.2916316402889203 3.3356595440722647 8.1466450575041804 50 56 46 1.8388086413624598 65 8456 66 8295 68 8248 64 8430
25727 3.1288393005633695 -0.26142774452724632 9.5682334778949301 201 206 202 1.2521483707232848 66 8305 68 8261 64 8439 67 8502 69 8279 70 8445 63 8182 62 11754 61 11671
25728 -3.9467945773707394 1.2748554655544997 10.713393446743613 195 181 179 1.2393199338396252 65 8467 66 8307 68 8262 64 8440 67 8479 69 8257 70 8423 63 8160 62 11736 61 11655
25729 -5.1282770618096203 3.8336883985936354 6.6123953417519692 142 101 79 0.65187583962817386 65 8476 66 8318 68 8270 64 8451 67 8489 69 8265 70 8431 63 8171 61 11662
25730 -6.0508203612423745 4.4895594015356597 6.4083952291748512 31 32 26 0.85023570948963889 68 8253 64 8456 69 8250 70 8417 63 8152 62 11727 61 11646
25731 1.7431923875824888 0.57763693878464939 11.858399218896004 37 26 16 0.41563449434717353 66 8332 68 8284 64 8464 70 8448 62 11755
25732 -5.9835648132016725 4.6118181763605266 7.0498942423532007 120 132 8 1.9982312524180839 65 8493 66 8334 68 8287 64 8467 67 8506 69 8283 70 8451 63 8184 62 11756 61 11673
25733 -2.7835507699036053 -2.3954595759014916 7.2107473462238945 235 234 230 0.9342943226711391 68 8288 64 8468 69 8284 62 11758
25736 5.6319377703613371 -0.95663370189741237 9.3330801106481527 57 163 255 0.63166051586702687 65 8495 66 8335 68 8289 64 8471 67 8507 70 8452 63 8188 62 11761 61 11676
25737 -0.60126148363183329 0.83361166960186761 10.857362324245175 13 14 9 0.64995706681426646 65 8496 66 8336 68 8290 64 8472 67 8508 70 8454 63 8189 61 11677
25738 -4.9087608532650533 4.4433173752204249 7.1493255902447146 200 111 51 2.1954076691144402 68 8293 70 8456 63 8198 62 11771 64 8475
25739 -5.8327991892693793 1.9955712335593887 9.9803825161653439 235 243 230 0.22759946150106952 65 8500 66 8341 68 8297 64 8476 67 8512 69 8293 70 8461 63 8192 62 11767
25741 4.4961931791949068 1.9676535998958566 10.106225933500028 223 236 193 1.6134808674692795 65 8504 66 8345 68 8300 64 8480 67 8516 69 8296 70 8464 63 8196 62 11769 61 11684
25742 -0.57987695435764608 3.8332416970792962 9.707377891909502 66 71 65 1.7498195915591821 65 8506 66 8347 68 8302 64 8481 67 8518 70 8466 63 8197 62 11770 61 11692
25743 -9.8461354932692426 -1.7055463208915136 11.4995157756551 106 108 84 2.361819955154286 32 5826 65 8509 68 8305 64 8484 63 8200 62 11773
25744 -3.6915703285494041 2.552155463154778 9.2045923910292835 51 55 54 0.36651975136685533 65 8510 66 8351 68 8308 64 8485 67 8523 69 8301 70 8470 63 8201 62 11775 61 11690
25745 5.8954385560764218 1.6499856606257715 7.1361288369372575 34 40 30 2.2335770909428949 68 8307 64 8486 69 8302 70 8471 67 8522 63 8202
25746 -4.4545706416730315 -2.1930214863793984 7.9050867425525375 9 14 7 0.69969066943863423 65 8511 66 8352 68 8309 64 8487 67 8524 69 8303 70 8472 63 8203 62 11777 61 11693
25748 3.4416309423030813 -3.4281678835795848 7.7765085496984767 202 210 226 0.388668209915699 60 5083 68 143 70 123 64 112 5 6386 7 5886 3 5874 8 5101 9 5298 2 6855 1 6365 10 3869 37 4054 34 3641 35 5030 33 3077 12 2840 13 1065 26 20 66 101 46 4491 47 4738 48 4765 50 4590 49 5070 52 4695 53 5030 69 129 65 115
25749 5.3331062015187811 -1.7938155055293572 8.8821790765363975 126 154 166 0.51056959846452032 54 2981 56 353 60 3219 64 550 6 4645 8 5337 4 3255 9 5533 7 3775 3 4206 2 443 1 514 10 2410 35 3207 34 2229 38 3537 5 4395 37 2602 33 240 40 2320 11 353 12 217 41 3131 43 415 42 392 44 249 47 415 14 327 15 215 17 235 19 338 21 317 23 367 39 3019 29 2375 31 1450 66 525 63 512 62 4313 61 4230
25750 0.63031788186875226 3.1846207102645945 7.9132792363756552 151 158 151 1.0207982528201958 59 6845 60 7989 64 6737 3 8204 2 8034 1 8939 35 8220 39 7223 36 7086 4 7189 37 6398 66 6528 70 6648 69 5295 65 6776
25751 5.2347881528489832 -1.5205035412780248 9.0734827760165988 36 104 191 0.87867618509650114 23 364 59 2722 27 422 31 1554 32 1265 34 532 35 596 33 330 18 409 40 2391 64 656 24 447 60 3332 28 2398
25753 7.9299610938316132 0.97681311949888905 7.9713200912737232 42 71 132 0.60815040179446544 48 4254 56 1144 49 2215 50 1874 64 1669 36 1448 68 1583 34 3033 37 3507
25755 3.1452136597804095 3.3283970588276364 8.4629837065625981 189 212 254 0.37925758758500222 41 5262 42 5670 43 6258 57 5467 40 6475 44 6037 52 5900 53 7243 49 7318 56 4961 55 6167 58 5468 59 6301 60 7379 64 4064 34 6847 33 5159 50 5824 6 6404 7 8036 8 7418 5 8304 9 7651 3 7658 2 7454 1 8324 10 6136 15 5041 4 7198 36 7094 37 6406 38 7484 39 6665 35 6330 12 4822 11 5460 45 6186 46 5798 47 7042 48 7078 50 5823 49 7317 52 6886 53 7242 54 5786 55 6168 13 4608 14 4502 16 4940 17 4624 18 3564 19 3846 20 3739 21 4037 22 3872 23 1553 24 3832 25 4048 26 3828 27 3982 28 4921 30 4124 31 4428 32 3805 67 4040 66 3986 68 3952 70 4049 69 4026 65 4113 63 3977 62 7597 61 8871
25756 5.67199363272079 3.2653055745629787 7.6441468915864563 195 189 172 1.3632429980240175 59 5418 60 8184 64 4178 5 9430 7 7059 9 8400 3 8334 1 9480 10 5120 33 5793 34 6907 36 8359 21 3961 19 3769 20 3648 17 3091 67 5486 66 4106 68 5362 69 5421 62 8921
25758 -3.6931148054613825 3.6608903049053785 7.7616811236096774 255 226 172 0.84748747801114566 56 4820 58 4731 60 7965 66 5270 67 5380 70 5382 64 5467 6 7150 7 8816 8 8182 5 8328 4 7224 9 8494 3 7687 2 7472 1 8343 35 7493 34 6919 39 6609 36 7887 37 7128 38 8089 33 5880 40 5659 41 2680 69 5333 63 5310 62 8757 61 8764
25759 -1.4195019417003711 3.6533122382808823 7.4214912524873862 154 160 151 0.29455931943070551 1 8401 65 5588 64 5535 38 8193 68 6566 70 6743 69 5396 60 8082 63 5373 61 8900
25760 1.7773229231316956 3.8844713107303424 7.2618891451206782 91 94 87 1.0301885677786407 59 7035 60 7535 64 5644 35 6594 67 5569 66 4198 68 5389 65 4314 63 5464 62 10156 61 10169 69 6714 70 7621
25762 -2.1950925599706732 3.9048417263736139 7.5585858170295959 173 149 253 1.1866444482805585 59 5339 60 7400 67 5454 64 4153 6 7235 7 8857 8 8725 5 9022 38 8188 34 7030 35 7613 36 7178 14 6615 15 6498 21 7205 19 7034 20 5925 22 7073 28 6325 69 5392 65 5586 2 7555 66 4083
25763 -1.3551705264589411 2.6349885722669346 9.213277460743031 216 222 223 0.43721885630263807 24 7873 28 7234 22 7907 21 8083 29 7202 30 6306 31 5516 32 4681 64 6647 66 6429 67 7449 69 6466 65 6664 68 6395 70 6550 63 6382 62 9891 61 9902
25764 0.20202318045822587 2.5355076518754691 9.1917488403757215 116 133 153 1.0194660961767155 36 7718 40 6266 35 8091 32 4277 64 6649 1 8845 69 6469 65 6666 63 5152 62 9894
25765 0.99865804000003566 3.0431766917840792 8.216690346377332 29 35 27 0.46361990175372214 69 6514 65 6723 64 6703 2 8452 1 9359 66 6486 70 6613 68 6436 63 6434
25766 -1.3432145458468645 3.3445386882111241 7.7209440208651223 36 41 42 1.0187106506995538 24 6821 28 6922 25 7637 30 6389 32 4794 15 7056 31 5202 64 7536 6 7578 8 8604 5 9359 4 8297 9 8899 3 8710 2 8527 1 9382 10 7436 34 7407 35 8715 37 7638 40 6803 11 6048 41 5569 42 6785 57 5849 58 5826 59 7294 13 5882 67 6627 66 6508 69 6533 63 6460 62 9963
25767 0.85994691486683672 3.1743589887091921 7.9525572919695424 114 120 117 0.52381507123306625 59 7307 60 8444 64 6740 5 9378 7 9214 3 8678 2 8490 1 9395 35 8731 39 7674 37 7650 38 8551 66 6529 70 5344 69 6552 61 9992
25768 -4.1977047344216505 4.325019289314282 6.9593852578765656 39 50 86 0.65860911158194635 57 5477 65 7658 64 6909 58 4814 66 5453
25769 -3.4682582920347209 3.1752708445537698 8.5036670805817316 112 105 148 0.75802828949561163 40 6297 41 5516 42 6190 57 5284 32 4750 33 6234 64 6669 58 4662 60 7918
25770 -4.2519087488723493 3.536731926066929 7.9102644241262352 99 64 95 1.1712787684738279 59 5186 60 4678 64 2202 34 5026 35 7451 2 5261 37 5301 66 3948 63 3893
25771 4.7900552773407945 0.064174562887659395 11.107782469939824 13 1 0 0.74635673913240719 31 3101 32 3507 64 5004 59 6595 60 7730 5 8708 6 6883 8 7881 4 6775 7 8543 9 8171 3 8019 2 7836 1 8744 10 6635 35 7940 39 7506 36 7517 40 6079 11 5197 41 4957 67 4952 68 3259 70 6410 63 4889
25772 2.3808245017466705 2.9696486027605156 8.2098126174283035 112 117 110 0.70722607157935558 34 7344 39 7688 35 8698 2 8465 36 8294 37 7622 67 7486 66 6491 64 6706 5 9346 6 7564 4 8273 7 9151 9 8806 10 7338 11 6281 12 5875 14 6338 15 6907 16 6788 17 6547 20 7351 19 6711 24 6642 26 6637 18 6297 22 5590 27 7437 28 6760 30 6321 31 5070 69 6523 60 8457 63 7319 62 10845
25773 -2.9049069484090064 1.0984098362113173 10.891071795657426 94 64 43 1.2418881923671174 33 6584 65 7783 64 7433 42 7035 44 7017 6 7801 8 8837 4 8151 5 9245 9 9089 3 8564 2 8347 10 7870 35 8549 39 7516 36 8534 34 7680 35 8957 39 7913 2 8750 37 7887 38 8758 33 6109 40 6619 11 6494 12 6455 41 5818 45 6471 47 7844 48 7864 52 7667 53 8011 51 8113 54 7606 55 7381 58 5670 59 7159 13 6387 68 7200 70 7416 63 6281 62 11066 61 9800
25774 -0.34041955444159433 3.2157953345176589 8.0526501687514767 95 102 96 1.1486462661444989 58 5401 60 7978 64 7541 39 7663 7 9516 5 9692 6 7584 8 8574 4 8249 9 8820 3 8665 2 8481 1 9388 10 7715 35 8675 36 8276 37 7604 38 8542 40 6811 67 7511 66 7386 68 7324
25775 5.1370063787123019 -0.47911722499445103 9.7555983575884238 35 151 240 0.73650380355211187 7 9853 19 8152 23 8275 24 8095 31 6103 32 5266 64 7995 4 9039 66 7829 67 8009 68 7782 70 7954 69 7783 65 8017 63 7725 62 11258 61 11415
25776 1.3360680365916064 3.0942212381904284 8.0615463794500162 3 4 3 0.75757389920400886 59 7314 60 8450 64 7550 1 9742 69 7358 65 7544 61 10801
25777 1.3360680365916064 3.0942212381904284 8.0615463794500162 3 4 3 0.75757389920400886 59 7313 60 8451 64 7551 1 9743 69 7357 65 7545 61 10802
25778 -0.13528518433803341 3.4739162927398395 7.7324100046324498 67 71 68 0.39289234021854019 58 6492 60 9227 64 8108 34 8238 35 9529 36 9100 38 9297 70 8079 6 8288 68 7904 67 8129 69 7903 65 8133 66 7958 63 7838 62 11383 61 11340
25780 7.9547767736405346 0.53332763505319458 7.717531430224235 144 169 186 0.71655629463478354 49 5958 66 3523 65 1633 70 3593 47 5705 48 4111 51 4355 69 3556 64 5153 36 6699 68 4946
25781 5.5324080603388426 3.5539290364274354 8.1153748464351434 44 48 39 1.8612225554710391 44 7353 46 8007 47 8427 50 7932 51 8391 51 8686 54 7887 55 7289 60 8182 68 5358 64 5566 1 8423 65 5630 70 5491 62 8959 61 8980
25782 -5.3960365010081492 3.134985173048523 5.2514791394249833 163 157 157 1.9155086772993908 46 8423 48 8548 47 8537 50 8343 49 8772 52 8373 51 8777 58 6752 59 8225 60 9361 67 8365 66 8190 69 8150 64 8329 38 9424 39 8570 40 7720 37 8583 41 6376 70 8310 65 8402 42 7628 63 8056 62 11608 61 11548
25783 -4.4709505228531174 3.9110066626616478 7.461202388884181 237 133 81 1.048877721877999 50 8600 56 6921 57 6886 46 8738 49 9033 51 9027 64 8383 65 8404 5 10332 4 9345 6 8492 3 9724 2 9557 66 8239 34 8471 42 7809
25785 6.707312833874898 -0.2937764444108254 8.1254129274010687 233 243 169 0.26025220686735062 68 1127 64 1232 67 1157
25787 7.0792793119697279 3.926843107988951 7.5381176690393126 240 245 222 0.27108445629113381 68 2521 64 2620 63 2605 67 2658 70 2670
25788 -1.7789571055277058 -2.9629944151757965 6.8472382690929994 169 216 243 0.68519296991380341 65 2679 66 4298 64 2679 62 7804 63 4202 61 6151
25789 0.12035330963834985 -3.1018532832109051 7.2983591986502248 11 13 10 0.081333884080180843 66 2633 64 2686 67 2741
25790 6.6197240282433709 -0.36178628103649302 8.3907322774166317 32 31 45 0.35949894089685125 66 1057 68 3089 64 3205 63 987 67 988 70 3255 62 6878
25791 -1.245312084791004 3.4144093309509866 7.5828216765614131 7 12 5 0.033805768727816293 68 5258 64 5469
25792 0.023976259748742075 3.6217725002174839 7.3637238105914804 64 71 63 0.13306976351524988 66 5367 64 5549
25793 -2.392317450589021 -0.37090176235794342 8.045823835306221 173 173 175 1.1522340993229392 66 5954 64 6156 63 5916 65 4731 67 4613 70 4631 61 8073
25794 6.8584735409988209 -0.24859104438414306 8.2531933941307436 15 48 71 0.43873726346596381 65 6506 66 6277 68 6254 64 6499 63 6234 67 6402 69 6316 70 6385 62 9734
25796 0.54570608806618837 3.6361713444741506 7.7212942486886451 0 0 0 0.20654780360395247 65 6874 68 6592
25797 -1.2313414013299859 -2.3525685268567491 7.7619020630283222 242 237 241 1.0183823113160717 65 7024 66 6843 64 7040 67 6949 70 6972 62 10253
25798 1.1101854234285455 -2.4993004781029886 7.7998944785838411 215 211 212 0.76836984465950531 65 7069 66 6880 64 7069 70 7021 62 11004
25799 6.850843257060192 -1.355784135304362 8.0769839812783424 69 63 34 1.0589034859047175 68 7082 64 7338 63 7095 67 6017 69 5956 70 6011 62 10620 61 10568
25800 6.850843257060192 -1.355784135304362 8.0769839812783424 69 63 34 1.0589034859047175 68 7083 64 7339 63 7094 67 6016 69 5957 70 6012 62 10619 61 10569
25802 6.0215426204788729 -1.1136240795310095 8.8140717876736794 33 149 248 0.94356851415421128 65 8214 66 8040 68 7770 64 8190 63 7920 67 8207 62 11456 61 11409
25803 6.4582977764040832 0.39360369181561994 8.8272405231836935 97 154 204 0.59234347598701143 65 8243 66 8070 68 8021 64 8214 63 7944 67 8238 69 8023 70 8190 62 11480 61 11528
25804 -3.4758704564888623 -2.9113841486262304 7.0095917011624111 146 111 115 0.35143345679563143 67 2 63 12 69 6 70 7 62 3699 61 3684
25807 -1.3649662155434492 -1.1711996691659829 3.0419385724015151 146 179 219 2.4960597223926841 67 7 63 33
25808 -2.9438578577878625 -2.9778183551537873 7.1433862270715816 153 151 152 0.35882985860596844 65 2674 67 23 63 37 66 2617
25809 -2.9347989139243529 -2.9685170812639718 7.122526429273325 153 151 152 0.32585537557461336 64 17 65 2675 67 24 63 38 66 2618 69 26 61 3698
25810 -2.730868697748988 -2.9506945590678701 7.0838612928633085 184 183 181 0.24231073305843953 67 31 63 45 68 37 70 27
25811 -2.730868697748988 -2.9506945590678701 7.0838612928633085 184 183 181 0.24231073305843953 67 32 63 46 68 38 70 28
25812 -2.6607910044491372 -2.9642573012034159 7.1155812421893918 4 5 4 0.23486744967871342 64 25 67 35 63 58 66 32 62 33 70 33
25813 -2.4673663387060016 -2.976086736712463 7.131610200957299 200 200 200 0.16325038061471808 64 29 67 37 63 60 69 46 62 3723
25814 -2.1966658425023358 -3.095341864864019 7.1334714073866383 176 212 254 0.31726401522103803 67 40 63 64 68 58 66 2624 69 2642 70 2736 64 2677 65 4429 62 6258
25815 -0.60268591782121039 -2.9922865726063472 7.1376361577333114 194 196 195 0.74612888173045799 64 47 67 68 63 92 68 95 62 3765 61 3737
25816 0.75010310830384375 -3.2061733867215154 7.5845291005675337 191 190 186 0.32570237299467247 64 76 67 94 63 112 66 82 68 117 70 93 62 3785
25817 0.75010310830384375 -3.2061733867215154 7.5845291005675337 191 190 186 0.32570237299467253 64 77 67 93 63 113 68 116 66 81 70 94 62 3786
25818 0.53111144782802333 -1.3319017000013054 3.4848293975658251 35 0 4 0.60606283090646906 65 2693 63 114
25819 1.0147875137951596 -3.2036972184729682 7.5744222842934361 180 171 169 0.26642985728159563 64 84 67 97 63 117 69 104 66 87 62 3793 61 3768
25820 1.0111714863933172 -3.1871990389969111 7.5383711967352269 180 171 169 0.20315631524352923 64 85 67 98 63 118 66 88 69 105
25821 0.97837257139837785 -3.1935568230829996 7.5920773540755322 30 2 7 0.21138643734197302 65 92 67 96 63 119 66 86 68 124
25822 1.7695964788435794 -3.2577517191921896 7.6866018783656109 186 188 183 0.30087645741537278 65 95 67 106 63 126 66 94 70 111 62 3802
25823 2.9436991843867566 -3.3864407273052666 7.6999554188550059 167 176 173 0.18856049892906687 31 1196 67 112 63 137
25824 -5.4209912323243223 -3.4709919898767643 9.2140081821474364 44 50 40 0.43987326507204128 67 133 63 162
25825 -5.5100721205355701 -3.6956538758702653 9.758359737707762 45 51 41 1.3451294223384309 67 135 63 163 68 158
25826 -2.1426584505303268 -2.7594933296242474 7.3280159329367924 255 253 254 0.37607232911531147 67 152 63 171 62 3838
25827 -1.6303879925157427 -2.5368552545771244 7.5664106822702779 254 251 254 0.179969168788499 67 173 63 196 68 182 70 176 62 3866
25828 1.5745086481834427 -2.4429882009395105 8.0769583731543886 251 249 250 0.12033618574228359 65 236 67 253 63 256
25829 -1.879211571288844 -1.4138863515005944 8.112269139062942 243 239 242 0.29844485486132993 67 443 63 426 62 4242
25830 -0.83851339483210685 -1.5196915603168828 8.2579414179509971 147 142 148 0.2651761652462834 67 458 63 440 65 483
25832 5.4665583450263844 -1.667846142961922 8.784074901405317 0 7 7 0.36746047695579809 31 1455 67 577 63 519 66 602
25833 5.8656068863611051 -1.698825500368498 7.9350607902617867 84 144 226 0.65523020583413838 67 514 63 537 66 546 68 509
25834 6.152228432813021 -1.7996767531855715 8.101213004187148 152 174 122 0.1844340227392752 64 582 67 516 63 539
25835 6.1482977555204332 -1.6990461897047633 8.4618822905655531 222 244 130 0.3661857785101425 64 585 67 517 63 546 65 572 66 548
25836 6.2269988520133497 -1.7124208810317327 8.107828437859343 34 47 3 0.24973373901073045 64 591 67 527 63 552 66 557 69 520 62 4351
25837 5.7174781017044047 -1.6229192029537438 8.875818674660394 72 144 216 0.47831256226157098 64 664 65 643 67 2996 63 609 62 4412 61 6482
25838 5.8938379495811111 -1.4666454920740117 9.0901767466424896 46 150 243 0.5632279912077508 67 584 63 615 69 573
25839 6.1026147907637629 -1.5446064418392451 8.3069044099818878 132 168 223 0.45161168634841292 65 650 67 591 63 625 69 2932 62 4437 61 1350
25840 6.1007790855009167 -1.3839069098121222 8.0770659308261301 182 242 255 0.35900889563986566 67 600 63 626 65 3014 66 623 69 583 70 600 61 6494
25841 6.1558592333092585 -1.4026566815610091 8.1633626999815387 182 242 255 0.45253257359339799 64 690 67 601 63 627 65 3013 66 624 69 582 70 601 62 4442 61 6495
25842 6.5590076930305052 -1.2802761366672215 7.9968334981167875 80 111 85 0.14205414555490883 64 706 67 615 63 642
25843 6.5341188743284677 -1.3952527311191767 7.8298289876009708 216 198 96 0.42673548198993583 64 700 67 613 63 644 66 632 61 6505
25844 7.0797787087547137 -1.2596961662583899 7.4790500965003117 64 86 70 0.36373001072250577 64 2981 65 678 67 3008 63 669 66 2969 68 610 69 2946 70 625 62 4477 61 6517
25845 6.0682451272978177 -1.023039265664937 8.6124584167159526 93 171 255 0.31815914715981242 67 678 63 730 66 687 70 677
25846 6.9833817448010276 -1.1644577069425566 7.7703421464768123 193 194 186 0.47933673901321405 64 810 65 746 67 695 63 740 66 707 68 687 62 4551 61 6560
25847 7.0143135304906785 -1.1419835247681813 7.8370115833557188 59 88 46 0.40997917284365004 64 812 67 697 63 741 66 710 68 2904 69 2994 70 694 62 6652 61 6561
25848 7.1948833774547589 -1.0410764134516473 7.7572184238094275 2 58 129 0.38827963397281079 64 827 67 707 63 748 65 763 68 699 69 702 61 4470
25849 7.1272810225750911 -1.1205270585066405 7.5694351606556012 187 207 185 0.35547555779665724 64 824 65 759 67 703 63 750 69 704 70 701 62 4569 61 4463
25850 5.2669141795201284 -0.88301095881492486 9.389817828602828 115 94 15 0.41313227010310483 31 1751 59 2843 64 929 63 824
25851 6.4247649847210395 -0.74480136056121704 8.2417065911308711 1 38 85 0.29773431674816236 67 814 63 844 66 870 68 806 69 837 70 824 62 4699 61 4587
25852 6.7568508204165738 -0.83243781162251729 8.3183599692756829 158 188 251 0.664237412568358 64 949 65 909 67 820 63 846 69 844 61 6629
25853 6.7035667405337049 -0.91315316255201207 7.9839211064427245 225 219 134 0.16736191584800725 67 824 63 850 69 846 62 4719 61 4594
25854 6.7291145865307751 -0.78295925143505474 7.9655862273566349 91 162 214 0.48531048180248115 64 954 65 914 67 825 63 852 66 881 69 855 61 4604
25855 7.0144015018094787 -0.73154755976936692 7.9338334381653066 37 41 77 0.55790500800014275 65 919 67 831 63 857 68 823 69 860 70 842 62 6729 61 4611
25856 7.3325499811965074 -0.71119211241477942 7.5428623767847593 3 36 84 0.73423257911894269 64 974 67 843 63 871 69 870
25857 7.3806462353262496 -0.60481028418029648 7.4759593651953127 140 166 216 0.47600285552676247 67 846 63 874 66 1082 64 978
25858 -1.3170299731778925 -0.27381212434052077 9.0282109069769092 231 230 235 0.30717222990999793 67 887 63 890 68 882 70 887
25859 1.4487657771914411 -0.21510012314928401 9.5655470332652026 142 143 145 0.17262611082777157 67 915 63 930 66 981 62 4767
25860 5.2398902913858976 -0.40601225505960975 9.7699949803328661 12 0 0 0.38291992724365204 67 942 63 954 69 978
25861 5.5819256791519818 -0.38497755564473951 9.5352416616381959 3 18 26 0.37208841004914983 67 951 63 963 62 4920 61 4826
25862 6.0335798505264959 -0.49631338803428449 9.09010783376619 100 159 222 0.74727355052070354 64 1071 65 1049 67 966 63 971 66 1028 69 997 62 4808 61 4711
25863 6.5915780276241431 -0.52679231860493403 8.4272221927533213 217 227 195 0.63298610088194784 64 3201 67 982 63 985 68 971 69 3183 65 4905 66 3193 70 3252 62 6800 61 6719
25864 6.7858779038104826 -0.47935957616065783 8.0702730251317512 115 195 249 0.32278718757619945 64 1107 65 1076 67 3231 63 998 66 1065 69 1031 61 4752
25865 6.9920719052863181 -0.58671936793019097 7.9409912890548471 203 237 233 0.34749293380114887 65 1084 67 1000 63 1005 68 991 69 1036 62 4836 61 4759
25866 7.5479963521592532 -0.57625980742850569 7.6316468888272002 83 100 136 0.96065579540216017 67 1013 63 1027 65 1101
25867 5.9907272689536857 -0.20901337759622299 9.1618927144798512 112 170 235 0.31759244112516566 67 1125 63 1099 66 1179
25868 6.3306133064714203 -0.19019969544340259 8.8770338680465493 63 132 200 0.7069905908079126 65 1209 67 1137 63 1111 61 4843
25869 6.4492745364427604 -0.25452847473398199 8.4237892758064756 0 20 58 0.41671169090611626 67 1147 63 1124 66 3280 68 1122 69 1149 70 1162 62 6874 61 6825
25870 7.2246757343068833 -0.1211906119675607 7.8130360239888423 58 70 72 0.65929907902576501 64 1250 65 1241 67 1174 63 1148 68 1145 66 1218 61 4970
25871 0.78736484576227539 0.52026242113531074 10.868489333577456 11 13 8 0.20658722875901811 67 1224 63 1181 69 1226
25872 1.4064958913717163 0.20388002653034376 9.5130879666870367 204 208 210 0.33534075282319437 67 1225 63 1184 61 4903
25873 5.297371854168003 0.097194642087654298 9.7802445475472197 191 204 178 0.083671688983071604 65 1314 67 1236 63 1198
25874 6.1781417196611645 0.28457697407609422 8.8497749651043272 38 113 188 0.44548514573005144 67 1250 63 1208 66 1295
25875 7.0481191108165682 0.14409062470404568 8.2584878071787582 49 79 72 0.46411663355546373 65 1344 67 1274 63 1228 66 1310 69 1269 70 1286 61 6977
25876 7.1457024059531769 0.073332697520979997 8.2502910820853312 5 49 60 0.17381906898256289 64 1340 65 1347 67 1270 63 1230 66 1306 68 1234 70 1289 61 4964
25877 7.2753204211152491 0.1003680468820714 8.1547776228907711 114 139 208 0.51012884720314478 67 1279 63 1237 68 1240 69 3359 65 3476 70 1291 66 3362 62 5050 61 4969
25878 7.6475101174279283 0.072198611626678399 7.8296479023617991 45 93 155 0.12119553193151514 67 1288 63 1256 66 1323 68 1253 70 1312
25879 7.5639995634240496 0.1692841895801763 7.6533542095658422 56 64 48 0.5149323441699275 65 1372 67 1299 63 1263 66 1328 69 1283 70 1314
25880 6.2473212488481389 0.45923035007869689 8.581680789378872 94 130 206 0.49833651356067793 64 5076 67 1367 63 1319
25881 6.7633238004567682 0.41268683680568363 8.8656314703222314 87 157 229 0.66543503160380235 67 1377 63 1320 66 1403 68 1330 69 1360 70 1409 64 3464 62 5128 61 6967
25882 6.7829165467241719 0.40527123987951241 8.8218918656640017 0 51 95 0.29208542898528966 64 1420 67 1378 63 1321 66 1402 68 1333 62 7002 61 2530
25883 6.703889093829936 0.54803495413088366 8.8270945712958202 125 152 178 0.4450624573622759 64 1422 65 1442 67 1382 63 1327 69 1363 66 3425 62 7004 61 5141
25884 6.9743391008377325 0.37814006545788847 8.4649336276808071 190 211 200 0.43386485816080766 64 3468 65 3557 67 3464 63 1337 66 1414
25885 6.9779965992376249 0.38910275582044068 8.2971375359452537 122 138 52 0.43063518895035691 67 3468 63 1342 69 1373 62 7013 61 6978
25886 6.9758225016801685 0.55169944717035668 8.3921489323231171 66 133 187 0.26233988615950959 64 1435 65 1456 67 1401 63 1345 66 1421 69 1377 70 1428 62 5259 61 5154
25887 7.1676625481402985 0.28261589440237872 8.2171289094689381 0 59 138 0.32809123781422356 64 1437 65 3563 67 3473 63 1348 66 1423 70 1431
25888 7.1385009215299 0.33900319375981658 7.9335669691152333 196 241 190 0.44201200903580462 65 1470 67 1405 63 1355 68 1349 69 1385 64 1441 61 5058
25889 -3.2113713353698423 1.4759094601575113 8.5567989549407155 45 51 41 0.67691639212296262 64 1495 67 3589 63 1394 69 5008
25890 -3.5768449182439133 1.355679021249355 10.744128434199826 233 217 193 0.68957171593351452 67 1457 63 1401 69 1432
25891 1.4858541289271807 1.0756742320065695 10.846882237282722 110 114 122 1.1982033855104131 31 4208 63 1439 23 6673 24 5240 25 6642
25892 7.1193006888004717 0.63422404626964402 8.4421124212313678 151 179 213 0.46823106549874111 64 1565 65 1596 67 1519 63 1478 66 1553 70 1554 62 5260 61 5158
25893 7.3971186570120908 0.60183988231371921 7.8710835932182945 84 131 190 0.65873281659932437 67 1529 63 1489 69 3550 68 3461 61 5166
25894 7.5671294909550406 0.52373938484600191 7.9369586708576891 83 136 193 0.25679211353188097 67 1420 63 1491 68 1356 69 1395 62 5278
25895 7.7687575034503658 0.59690524342797191 8.1641516777168217 25 30 41 0.84908209116834055 64 1584 65 1612 67 1533 63 1493 68 3463 62 2665
25896 7.4942121638380277 0.614267441488209 7.9071795402663261 133 148 171 0.28715263071610908 64 1585 65 1611 67 1532 63 1494 66 1563 68 3462 69 1519 70 1570 62 7123
25897 7.5072161591505315 0.96885409622942764 8.2636906478948386 167 185 208 0.36977729304200435 64 1658 65 1697 67 1632 63 1581 66 1660 68 1567 70 1675 62 7183 61 7197
25898 -5.8766500272369981 2.2444808996936083 8.3505301393842508 155 166 141 0.25682840881000418 64 1684 67 3662 63 1602 66 3604 69 3641
25899 -5.9275899207688676 2.2572294826782762 8.4227946592885985 155 166 141 0.12573721147398609 67 3661 63 1603 66 3605 69 3640
25900 -5.684714523434244 2.4863911972344708 7.945130738101942 161 142 117 0.70004508522342812 67 1727 63 1674 66 1741 61 2832
25901 -5.4221218880699888 2.8086760251566005 7.9264474519159895 213 161 140 0.46536341224540179 67 1830 63 1789 65 3860
25902 -4.613109670005926 2.6661366792307928 8.3077851372645526 144 131 96 0.7773946584545216 67 5197 63 1796 68 3701
25903 -2.7385185392461944 2.8551721779432668 10.094266495168975 35 35 48 1.5633982839996043 67 1860 63 1808 66 1837
25904 -1.4205265689979758 2.5851470346111407 9.2412352666155684 156 167 171 1.1425730986918023 31 3474 59 4966 63 1821
25905 1.7385260101643059 2.8129425458416613 11.149509173932179 25 35 37 0.6195730427051549 67 1894 63 1847
25906 -5.5608853325099519 2.5407297397711797 5.218704364795018 201 203 179 1.8126108618371077 59 5080 64 3925 63 1878
25907 -6.051221576035303 3.3170278491563847 8.5793107953085421 154 114 79 0.33602091027572439 67 3857 63 1902 61 5511
25908 -6.0570074635300184 3.3212584967782681 8.5954956916866205 154 114 79 0.7460262831786233 67 3856 63 1903 66 1932 61 5512
25909 -4.6734820941284587 3.2299245405598369 8.4821918014925632 96 41 1 0.41949777325012794 59 5117 64 1975 63 1922
25910 -4.5075964072334243 3.2766142961808322 8.5224198759870138 159 158 145 0.92702104012514452 64 2088 65 2081 67 2073 63 1925 68 2011
25911 -5.7073628449215192 3.2842877117058422 7.9752720835895179 140 110 72 0.57806286389662043 67 2057 63 2015 69 1992
25912 -4.8669617570185437 3.0014300280625843 7.1645051161852038 57 27 19 0.85165978460164937 67 2059 63 2017 62 7386 66 2024 70 2115
25913 -4.5196011381251351 3.3542352344147837 7.8790619336307586 161 110 94 1.1235659770278186 67 2071 63 2037 66 2148 64 2084
25914 -2.2016295587013985 3.2884077115145947 8.4508136963191447 10 15 5 0.21769354679404226 67 2102 63 2066 69 2038
25915 -1.6546975279029912 3.0058417701997913 8.0141356351683495 157 167 159 0.4302801643502227 67 2104 63 2070 61 5655
25917 -1.3828454363727398 2.9722954620284581 8.0625148649535774 35 45 37 0.18332327444432209 59 1872 63 2077 62 5764
25918 -5.3483587236736891 3.341373467132938 6.5188106380964976 221 192 184 0.4380297953097424 67 4050 63 2129 68 3967 69 4042 70 2325 62 7501 61 7461
25919 -1.6010263120202008 3.3301067572406877 7.7153518550485201 20 27 19 0.36866410560682428 64 2241 67 2187 63 2178 66 2176 68 2127 70 4023
25920 -5.2048307947621408 3.3676161209959155 5.2756374982001466 87 95 101 0.51469900028158366 67 2422 63 2327 68 4066
25922 -4.1951504089272698 4.2828590131039164 6.9822130063084638 125 143 214 0.22231427700142786 67 2554 63 2425 66 2458 70 2553
25923 3.2893350592432395 3.8632238016676896 7.7223611504472762 86 133 183 0.30125877733901424 67 2495 63 2471 62 6142
25924 -4.2457215915096382 4.360670130787919 6.8132462369826916 90 70 106 0.6182921505723733 64 4246 67 4221 63 2511 69 2462 70 2556
25926 5.6774087992052413 3.7324746180926618 7.8609996668438464 27 25 10 0.065363570236587828 67 2504 63 2542 61 6049
25927 7.0199584385209066 3.8966280063417362 7.6260122919325219 52 37 21 1.2613378136076299 64 2612 67 2582 63 2599 69 2507
25928 6.4029838754092294 4.0713705961424456 7.5453800337489936 46 20 3 1.3527603740901266 67 2653 63 2627 68 2517 69 2564
25929 -2.0130308044300551 -3.0536398529040834 7.5861171490594161 116 113 114 0.354924936693221 65 140 67 153 63 2647 69 149
25930 0.89044914865462832 -3.1565003109977621 7.505423882481014 27 2 5 0.4763428467570458 65 4440 67 2744 63 2653 66 2634 69 2659
25931 1.6310872418832918 -3.235832094859576 7.635578377796457 187 191 192 0.18400149845333943 67 2747 63 2656 66 2639 64 2694 65 2698 62 6270 61 6158
25932 3.0329871287829793 -3.3728698530913901 7.7354829896440194 57 66 63 0.63450031093958215 47 4731 63 2657 51 2804 53 2937
25933 -2.3072613277925038 -2.4907907972960919 7.4959868440529975 251 246 250 0.40369263073785827 67 2768 63 2680 66 2672 69 2691 68 2608 70 2772 62 6309 61 6202
25934 -0.026792185899964037 -2.3502297641027807 7.8918229109451357 246 241 245 0.39055378591364992 67 2788 63 2712 68 2646 69 2735 70 2803 62 3942 64 242
25935 2.6796282178611817 -2.47564116121579 8.0658903182964572 234 233 231 0.29367765390770806 67 2798 63 2724 68 2656 69 273
25936 -0.99164590826534993 -2.0455923145976547 7.8259111421693914 255 251 255 0.67347035655921472 64 4422 67 2817 63 2734 66 4363
25937 1.5410250623667683 -2.1417043654515657 8.4501243042076748 255 253 254 0.26280731008429542 64 2789 67 2855 63 2747
25938 -6.6187778739303678 -1.9727060720928897 9.1061349039534463 28 30 16 0.54337675811022457 31 3918 63 2760 62 6412
25939 1.8531599872773834 -1.8781033596429222 8.519367227610072 249 247 248 0.54110326590862556 67 2856 63 2789 66 2805 68 2711 69 2819 61 6320
25940 5.6229472993243155 -2.000827447136694 8.4752680773202727 164 177 183 0.062381104938174461 67 2874 63 2804 66 2820 68 396
25941 5.5582979996207813 -1.8839907388405643 8.0779476505170873 6 33 65 0.55164683742198217 67 2879 63 2808 66 2826 68 2726 70 2897 61 6344
25942 5.8449188395189537 -1.8707362942392589 8.1294919643497501 107 142 185 0.76938751081257961 65 443 67 511 63 2810 64 468 62 4210 70 524 61 6347
25943 -6.4422315096742979 -1.1376625208340079 7.936605977831297 122 124 103 0.59820692840572043 31 4804 63 2815 39 6835
25944 -2.2796181842349812 -1.5181070873462124 8.0420054808871111 233 228 232 0.16038549934474441 67 2894 63 2826 62 6480
25945 5.706541372587882 -1.7872466514849978 8.1970228106562129 120 167 218 0.2624530928124898 67 510 63 2869 69 2883
25946 -4.4461781883250895 -1.1674443807147756 9.4015397433191126 186 195 193 1.9150255650468437 67 4531 63 2899 69 4501
25947 5.6199814820003988 -1.5804027823234581 8.8292156710225509 68 151 230 0.51951441601497961 67 2986 63 2917 69 568 70 587 62 6565
25948 5.6047572270909862 -1.3642311212858347 8.7947845443914243 217 234 187 0.15519916908966819 65 2999 67 2990 63 2921 66 2944 69 2931 70 2987 62 6568 61 6484
25949 6.1102787398327356 -1.2899419543514967 8.3164649465869811 17 51 77 0.26232317560964663 65 4661 67 599 63 2928 66 620 68 579 70 672 62 6575 61 6541
25950 6.1467913303268213 -1.3032088985731529 8.3737204960786897 17 51 77 0.29604115774707379 64 691 65 4662 67 598 63 2929 66 619 70 671 61 6542
25951 6.6158510879641774 -1.2216547157415591 7.9169199602514579 27 65 127 0.33953885084853486 67 685 63 2937 66 695 68 2898 69 689 70 688 62 4460 61 6553
25952 7.1827327650593658 -1.2395126119555415 7.5702674632885643 195 212 166 0.35596255367135043 65 679 67 636 63 2946 66 649 68 2858 69 2947 62 4479 61 4382
25953 7.0957126421767036 -1.2149790013595319 7.3644736137729279 0 50 123 0.4278939659210742 64 2987 67 639 63 2948 66 2971 69 2949 68 613 70 631 62 6598
25954 7.0841712365244218 -1.2117440775697299 7.35031738119444 0 50 123 0.45413326886936972 64 2988 67 640 63 2949 66 2972 68 614 69 2950 70 632
25956 6.6764994803889506 -1.1130370794847795 8.1862995072028468 87 152 230 1.5370529178595294 65 4706 67 3049 63 3006 68 4522 64 6133 66 4539 62 10636 61 6551 61 10582
25957 7.0989455278437514 -0.98750665920428882 8.100108245400321 34 84 127 0.835894700626864 65 750 67 701 63 3009 62 4554
25958 6.9744829684600012 -1.0702683940702604 7.6358993854144472 208 212 173 0.28030776997237339 64 823 65 757 67 3058 63 3015 66 3013 68 2907 69 2996 70 700 62 6658 61 6566
25959 6.9633400526856626 -1.0119556167208525 7.6666105504119075 8 32 51 0.3605775955595083 64 3030 67 3059 63 3017 66 715 68 691 69 2998 70 704 62 6660
25960 2.719120887636258 -0.75130991275101733 9.7067802201133944 231 232 234 0.35448689238656345 67 3121 63 3060 66 3085
25961 6.3082673848880049 -0.69348633740669852 8.2661158988120125 71 146 224 0.86553066226929387 64 947 65 3152 67 3139 63 3083 66 863 68 804 70 3148
25962 6.8956532521703631 -0.73940143462345675 7.9378422545830105 0 18 45 0.21797609143310021 64 3112 65 3161 67 3143 63 3093 66 3106 68 2985 69 3084 70 3153 62 8148 61 6634
25963 7.0090938074040006 -0.68371230021697393 8.0017199965316372 63 91 119 0.38286788491328905 64 3117 65 918 67 833 63 3097 66 887 68 822 69 863 62 6728 61 4756
25964 7.2190839243723151 -0.62300051797982481 7.5817837953354408 1 40 122 0.45962051447131463 64 3122 67 839 63 3102 66 3108 68 2991 70 3161 62 6742
25965 7.2818610537206849 -0.69983851832946387 7.5697182685693098 0 36 105 0.33780017153250008 64 3121 65 932 67 842 63 3103 66 897 68 829 69 869 70 3160
25966 7.4496514793354303 -0.81049951452667346 7.6449266015578718 82 104 95 0.14795775433389072 64 970 65 931 67 3149 63 3104 66 901
25967 7.4015993961637623 -0.7996616509456711 7.5897896017856574 82 104 95 0.3321383320674674 65 930 67 3150 63 3105 66 900 68 834 69 871 64 971
25968 7.457382291613623 -0.73827355416512863 7.5748377948451528 44 37 3 0.29048331006374184 65 937 67 845 63 3106 66 3112 69 876 70 849 64 3127
25969 7.455951030271315 -0.65671392889436608 7.5390997843711958 72 80 83 0.42839298372569268 64 980 65 940 67 847 63 3107 66 905 68 2994 70 850
25970 -0.3294926144138986 -0.26202678167068849 9.0604135745373604 234 233 239 0.21803044490735923 64 3149 67 3190 63 3125 69 3114
25971 2.8450875961799778 -0.25284687227165825 9.5578282994475607 132 132 134 0.10375634366142222 65 3241 67 3200 63 3155 61 6796
25972 5.4900399436205234 -0.51956122160374485 9.5281783790236485 30 89 118 0.31692085819821558 65 3257 67 946 63 3160 66 3176 69 3159 70 3236 61 6695
25973 6.0820542496843899 -0.68931335572479124 9.1711676482404627 0 27 85 0.24325391631791612 67 3216 63 3166 62 6779
25974 5.8614478078666457 -0.64102888797601987 8.8103742793132191 0 27 85 0.92130894324480073 67 3215 63 3167 62 6778 61 6705
25975 6.1477775759880684 -0.67089731613653425 9.0768073282513395 83 155 232 0.40962896198740406 67 967 63 3168 65 3264
25976 6.2928399921600215 -0.57389611164582377 8.5451840558598722 26 49 44 0.29565321622146579 67 973 63 3178 69 1010 62 6794 61 6712
25977 6.6577072937740036 -0.40790971876188564 8.3310344609778326 31 55 55 0.45427566680233405 64 3209 65 3278 67 3230 63 3187 68 3090
25978 7.477905533570433 -0.60450287228545263 7.5533982856239179 60 74 54 0.33801255451467005 65 1100 67 1012 63 3199 66 1086 68 3101
25979 7.4695656878524428 -0.44115971327932096 7.5823837264440819 181 227 224 0.53481588828827276 64 3220 65 1105 67 3237 63 3201 66 3204 68 3106 69 3190 70 3271
25980 7.6051812232511802 -0.4025162329726602 7.6551941146784834 221 211 199 0.56682554799914742 67 3241 63 3202 68 1009 69 3192 65 4928 70 1039 66 1091 66 4707
25981 7.5891269150372818 -0.40149488339157458 7.6395168852433217 221 211 199 0.4702354151182972 67 3242 63 3203 65 4927 69 3193 70 1040 66 4706
25982 1.8270757589159867 0.029604936015751641 9.5076362865890527 221 224 229 0.23034466183405908 64 3254 67 3284 63 3234
