# 3D point list with one line of data per point:
#   POINT3D_ID, X, Y, Z, R, G, B, ERROR, TRACK[] as (IMAGE_ID, POINT2D_IDX)
# Number of points: 375, mean track length: 6.7036189134454522
9931 -1.4458701690023972 0.37152738547503072 6.3436134276953773 54 48 48 0.96468850318855137 48 2949 49 1929 50 3229 51 1848
9932 -0.20906508375884128 1.8349706974722122 7.3136762948591469 100 89 76 1.5579204868312502 48 3025 49 1988 50 3323
9933 -0.94104267518548879 2.0982229667748342 7.6052580402476302 109 93 70 1.0037374479781835 45 2663 48 3574 49 2014
9934 -1.6767094931146009 1.9751214195765299 7.7692346824436536 153 139 113 1.1188355702385322 47 866 49 2021 50 3418 51 2064
9935 -1.9635453677184946 1.9478426445860175 7.8105455859604653 149 133 107 0.96013075576035156 45 1889 48 3073 49 2031 50 3446 42 1505 51 2842
9936 -2.9768390608366047 1.3245629829288614 8.6424773342898309 207 196 178 0.6025167527034675 48 3657 49 2044 50 4421 51 3797 52 3189 53 2878
9937 -2.2928737326397863 2.4576947423823627 7.0225012946718932 166 151 128 1.010432067577647 48 3108 49 2058 50 3485
9938 -2.5338400071163552 2.4771073502466954 7.1499952827516919 151 135 109 0.88301835074063317 48 3749 49 2064 50 3509
9939 -3.7284026653100835 2.0496406387566171 7.7975571508527004 218 203 180 0.28224553153111931 48 3807 49 2085 50 3613 51 2169
9940 -0.99736458939146244 -1.9016970479843009 4.695400064777103 25 24 30 0.57381153254754447 48 3895 49 2132 50 3814 51 3149
9942 -1.1448486168737573 -1.5976040915942293 4.8644625286823899 4 5 0 0.73870961664221158 41 2857 49 2152 50 3839 42 2132
9943 -0.79259005700620566 -1.1832566587717395 4.9041962402653061 57 69 145 0.8066152040193173 45 2017 50 3854
9944 -1.6722302449768096 -1.467934599553214 5.0875669912942385 187 186 184 0.61337189797027081 48 3329 49 2183 51 2312
9946 -1.9081575307074954 -1.0787062999212389 5.387550952457385 140 145 78 0.77547519434362133 47 1016 49 2236 51 3254
9947 -2.5605162882012245 -1.2521689664198954 5.6510768146681585 91 82 94 0.91472126546145183 48 2809 49 2252 50 5059 51 5488 53 5259
9948 -2.5365245771924201 -1.1655913643204396 5.8234112887533813 161 167 189 0.72667104041485109 48 2831 49 2270 50 5070 51 5499 52 4616 53 5270
9949 -2.5365245771924201 -1.1655913643204396 5.8234112887533813 161 167 189 0.72667104041485109 48 2830 49 2271 50 5071 51 5500 52 4617 53 5271
9950 -0.94177885720721044 -0.18784321024778874 5.6970084062847786 45 54 73 0.96726584412840633 48 4049 49 2276 50 3976 51 3278
9951 -2.4963619007132856 -1.2377149536968857 6.0768294298284173 166 171 186 0.7621221842660646 48 2832 49 2280 50 5080 51 5509
9952 -2.4709588891481533 -1.241263669547825 6.2575669698960636 175 177 189 0.64487382426879791 48 2833 49 2282 50 5081 51 5519 52 4625 53 5285
9954 -2.5091131132434303 -1.0633319648017108 6.048621356549476 153 159 175 1.2043851776900767 48 2230 49 2290 51 4390 50 4000 52 4631
9955 -2.4835830111472554 -1.0905573778707129 6.2340708563810416 162 166 178 0.51653576678654411 48 2847 49 2291 50 4002 51 4391
9956 -0.84251294530038312 0.086129795683398333 5.8762820563578719 147 144 74 0.82484505234163108 48 3416 49 2301 50 3984 51 2460
9957 -2.5095491759038389 -0.90361460947670413 6.1484347126722847 159 165 181 0.65499922857925608 48 2867 49 2308 50 5103 51 4415 52 4649 53 4518
9958 -0.93088334788328542 0.15613333718772082 5.9718530988127814 37 22 28 1.1437630265485856 45 2130 49 2321 50 4011
9959 -2.496544840565432 -0.85606003336695735 6.2748273166996578 160 164 176 1.2232112848690984 48 2886 49 2322 50 5109 52 4658
9960 -1.3791947099112536 0.006943962950356394 6.0272713623235674 142 138 135 0.899386086527039 48 3424 49 2328 51 2486
9961 -1.3748281753257114 0.11252176514336913 6.1107917517773807 149 146 145 1.2643884080917098 48 4067 49 2338 50 4039 51 3349
9962 -1.9034427722648777 -0.07500442476827418 6.1603426227705356 172 168 167 0.86524949493585945 48 4071 49 2347 51 3363
9963 -1.508729746447129 0.22034694577893249 6.2595185887289935 148 144 141 0.83100301685076461 48 3455 49 2354 50 4084 51 3393
9964 -1.2805977040449645 0.30961250565643866 6.2226161434430702 157 153 154 1.1112296161299169 48 4096 49 2361 51 3373
9965 -1.9407640469640381 0.21129364752848404 6.4216664972885074 171 167 165 1.0839316354206612 48 4118 49 2387 50 4120 48 3486 52 2872
9966 -2.4515759048494568 0.027999232292295628 6.9591776140760766 114 114 114 0.65244571956890429 48 2989 49 2406 50 5184
9967 -2.4573879748187992 0.12055016161583294 6.699943666342361 70 86 101 1.5101698933127332 48 3505 49 2407 50 4149
9968 -0.41746495237881504 1.4624693242621039 6.9515286932140539 65 70 85 0.31482294606043237 48 3510 49 2409
9970 -0.84836242163434916 1.5837305290324106 7.1173435838271617 127 131 125 1.6803231324124119 45 2622 49 2426 50 4195 51 2672
9971 -0.39434395313790382 2.2682994408834851 7.3420605686557963 162 147 125 0.92198999406619386 48 3557 49 2446 50 4239
9972 -2.6247055051455361 0.52796075866084302 9.5778707777589318 214 203 183 0.56941021645659495 48 3565 49 2466 50 5344
9973 -0.67653463037328387 2.7219048072699326 6.8111414483644479 139 123 98 1.5191581124336668 45 2743 48 4273 49 2477
9974 -1.5702490983755826 1.9941234534082832 7.767250590535256 145 133 111 0.45475067532338037 48 4269 49 2481 50 4313
9975 -1.2479550751548059 2.545444217146239 7.0185379027390784 169 156 137 0.67883897233857193 48 4326 49 2496 50 4319 51 3633 53 3708
9976 -2.2507746966917148 1.9556784683036221 7.8554411746889823 122 107 84 1.0813599212169536 45 2696 48 4343 49 2515 50 4398 51 3747
9977 -3.6966561671169349 0.59639351905925175 9.755636832563491 209 197 173 0.62996947480252474 47 864 48 3634 49 2525
9978 -3.6647655601250801 0.76498064429076562 9.4250960343493357 190 177 158 1.5409934124060396 48 3655 49 2526 50 5509
9979 -3.0110706999964751 1.3598314548624855 8.5778553854777737 173 163 146 0.58357022188539931 48 3659 49 2529 50 4449 51 3798
9980 -3.9823553366121636 0.83825603497708734 9.3485097902542833 195 182 163 0.90418401735238574 48 3678 49 2544 50 4544
9981 -3.9823553366121636 0.83825603497708734 9.3485097902542833 195 182 163 0.90418401735238574 48 3679 49 2545 50 4545
9982 -3.2260823864812358 1.831139420817016 8.0725236407863292 202 190 168 0.27476387074790054 47 1194 49 2561 50 4517 51 2949
9983 -2.2657416292581898 3.0213441589732097 6.4271466744151446 145 127 103 1.0013593503619156 47 1696 48 3794 49 2589 50 3513 51 3825
9984 -4.4456047764257587 1.0229390322326517 9.2596159925085963 221 210 190 0.35382906183783991 48 4470 49 2591 50 5700
9985 -2.7460275701936339 2.7321843804623582 6.8882322720096258 165 149 123 0.7346698507239966 48 3817 49 2603 50 4576 51 4976
9986 -2.2644059708596638 3.2086739265294923 6.2666360998770916 164 148 123 0.54759079997275995 48 3846 49 2606 50 5580 51 4951
9987 -4.7243086596685124 1.2774697010108957 8.9758817412826453 177 164 145 0.78952688043362584 48 3801 49 2624 50 4724 51 3080 52 3428 53 3172
9988 -4.7308222536480589 1.849406614238569 8.2534193388697563 219 207 183 0.4951236184985861 47 1254 49 2665 50 4818
9989 -1.1288953619124831 -1.8070010264980321 4.7724583447481201 172 175 170 0.64146905037006641 41 3353 48 3915 49 2709 50 4960 51 4271 52 2723
9990 -1.6474961607668286 -2.0216872649178179 4.8425056850403081 173 173 178 0.68557420029874794 48 3908 49 2715 50 4952 52 3532
9991 -1.3192996928995324 -1.8086482333494909 4.8462283446495045 17 14 41 0.3261700412139229 48 3928 49 2720 50 4974 51 4281
9993 -1.8172510211272603 -1.444505926615635 5.1446790308649053 55 54 59 1.3766969887123706 45 2431 49 2760 50 5015
9994 -1.5159413546474712 0.020241026105344225 6.0996064515505948 33 29 28 0.42200019461441035 48 4827 49 2830 50 5116
9995 2.0198510048820264 1.4860394965299717 8.3061069171030546 113 96 76 1.2923274952420951 48 4836 49 2843 50 6150
9996 -1.9568215628383674 0.09872294462342171 6.3329189586153154 167 163 160 0.92530123505094664 48 4109 49 2862 50 5143 51 4484
9997 -1.7886807390425146 0.22185129043911497 6.3449349436004061 163 160 155 1.39073758930646 45 3013 48 4853 49 2865 50 5146 52 3740
9998 -1.940482734256314 0.26335589731893871 6.4483372833686134 40 36 35 0.56897864916219487 48 4119 49 2873 50 5154 51 4506
9999 -1.734810341797167 0.30047678001946559 6.3932504694588879 54 50 47 1.487179988302316 45 2561 48 3490 49 2877 50 4108 51 3417
10000 -1.3688135479121069 -0.40506436780117627 10.753987597481327 217 205 181 1.0098638163962632 48 4881 49 2910 50 5242 51 4635
10001 -1.0006750908253961 1.2616077079976202 6.9075969115776692 108 104 93 0.57266339028249391 48 4181 49 2920 50 5220 46 1957 51 4579 52 2910
10002 -1.6514887879734832 0.96890113645318776 6.908019812281827 128 131 140 1.0034942303003382 48 4191 49 2936 51 4599 52 3821
10003 -1.6514887879734832 0.96890113645318776 6.908019812281827 128 131 140 1.0034942303003382 48 4192 49 2937 51 4600 52 3822
10004 -1.4033300974300342 1.0574888229067037 6.8823538270564244 40 45 85 0.7249400279136845 48 4937 49 2938 50 5219
10006 -2.4156003071641363 0.54166524854797904 7.4113372562789737 105 113 116 1.9397203449484477 48 3536 49 2958 50 6987 51 6781 52 5888 53 5958
10007 -0.54853716424878995 1.992912598524315 7.4152880193063604 127 111 96 0.96074054645919893 47 1507 48 3552 49 2962 50 5253
10008 -0.52442404133673881 2.2202271659106723 7.3524748646480038 169 154 131 1.6763298141314027 48 4227 49 2972 50 4240 51 3552
10009 -0.4647661631177179 2.2430456171369166 7.3395800560708873 192 177 156 0.46252438217748654 48 4226 49 2973 50 5271
10011 -2.1380869318929565 0.95680044610331627 8.9657934609400733 186 174 152 0.92906581102332486 48 4235 49 2985 50 5325
10012 -1.1723168312683276 2.1888323137118597 7.4048907478585324 112 95 75 1.0257288031957661 47 2075 48 5022 49 2989 45 3168 50 6328 51 4691
10013 -0.72080351489488537 2.5108332313364201 7.0938671057814213 202 189 170 1.133718794132458 48 4260 49 2992 50 4272 51 3574
10014 -2.9803192648053201 0.46933162626753433 9.6836742220152185 215 204 182 0.62238716898452773 48 4244 49 3014 50 5374 52 4075
10015 -1.4796365277547985 2.3132901623697051 7.2543875911712599 151 134 114 1.0583531498771186 48 4292 49 3025 50 5335 51 4739 52 3954
10016 -3.012035645091907 0.87551257672841698 9.1767151334603358 209 197 175 0.67850324178574339 48 5035 49 3032 50 5413 51 5794 52 4112
10017 -2.578910767792419 1.2043421278519977 8.718813278783843 209 196 177 0.29192229925781171 48 4282 49 3034 50 5379 51 4810
10018 -2.3694086353907489 1.5261076071929471 8.343618366184284 128 115 96 0.1202525674889288 48 5041 49 3038 50 6385
10019 -1.1157005715656441 2.9273349597664451 6.594040583881422 141 125 102 0.98248324951656862 48 4367 49 3054 50 5369 51 3661
10020 -3.6953013237203507 0.31982641564744024 10.120411381898016 214 203 183 0.74284804995737563 48 4278 49 3055 50 6436
10021 -3.0299911808537727 1.1011774142148609 8.9196643643552367 206 195 175 0.35234220363195806 48 4307 49 3056 51 4875
10022 -2.5484399200376648 1.5658559242570402 8.3052234375319713 183 175 158 1.0036481121318062 48 4310 49 3060 50 5420 51 3741 53 2788
10023 -2.5443793646929711 1.7075085636918472 8.2017361413792571 207 198 181 1.3524187024147942 47 1157 49 3062 51 3766 52 4054 53 2792 53 3870
10024 -3.6311231189097888 0.58021882376824319 9.7262306524226911 194 182 160 1.0071062917975679 48 5057 49 3077 50 6440 51 5868
10025 -3.0700227987484019 1.198461116931719 8.9485241031140248 201 190 170 0.85659349776364702 48 4336 49 3083 50 5478 51 4876
10026 -2.9903151545784508 1.4057263224792969 8.5320647307832704 201 192 175 0.50736007624467727 48 5091 49 3086 50 5480 51 5821 52 4938 53 4789
10027 -2.5382276583086227 1.9057229799934572 7.8735352418603615 175 161 135 0.69214316248334773 48 4378 49 3092 50 5458
10028 -3.1421458800986644 1.3366572607645031 8.6782503871002685 187 176 156 1.3521140323397254 48 4337 49 3103 50 5479 51 4927 52 4962
10029 -2.868628405313089 1.7119236363351502 8.1846247720386351 200 192 174 0.31485051020383775 48 4376 49 3104 51 3803
10030 -1.7528985368319383 2.8412800247482979 6.7052990174160332 195 180 157 0.99075675972938126 48 4460 49 3117 50 5440
10031 -4.0031864288838648 0.74364496795166224 9.5040391479346145 195 182 163 1.1346525698072891 48 5109 49 3125 50 6497 51 5904
10032 -2.5791300439347218 2.3458159756350914 7.3915275230653457 171 157 131 1.1952097228359613 47 2201 48 4487 49 3138 50 5522
10033 -2.0843015606953159 2.7817897856310529 6.8189888174608182 113 92 69 0.76764299467245189 48 4498 49 3145 50 4465 51 4861 52 4031
10034 -4.2159634449139247 0.69922894715059525 9.5805148690270219 186 173 154 0.68935569251815343 48 4404 49 3152 50 5583 52 4271 51 5048
10035 -3.3310135143604231 1.7603319085090585 8.1420961944495964 156 141 118 0.47725631685837827 48 4481 49 3155 50 5558 51 5003
10036 -1.9679007031635765 3.0220331153003985 6.5299494013548749 145 128 102 0.58714320785739993 48 5226 49 3162 50 5504
10037 -4.2074904326310882 1.0507708176915078 9.1837460498398737 210 197 178 0.36018069812958919 48 4438 49 3170 50 6532
10038 -3.880624607906916 1.2824314780520918 8.7830254422664407 184 171 152 1.5912167016628753 45 2687 48 4440 49 3171 50 5638
10039 -3.8831855829181277 1.2763073501587137 8.7513643357981419 184 171 152 1.082081266529026 45 2688 48 4441 49 3172
10040 -3.389534077300183 1.7729000965917412 8.1340022035974915 199 187 165 0.92331918308047944 47 1193 48 4479 49 3176 50 4559 51 3917 52 3269
10041 -2.4645238773633942 2.7120460716968902 6.8365364583820156 165 149 123 0.02282546269650117 48 4527 49 3186 50 4493
10043 -4.1277060824407013 1.2896886852599529 8.9326167105189818 186 174 152 1.0398147531525852 48 4473 49 3196 50 5675
10044 -3.7451815901750027 1.7383088717276898 8.2556436404805318 158 144 118 0.36702247574495606 48 5211 49 3201 50 4626
10045 -3.5039333394495524 1.8574865477121434 8.0780884796864907 173 159 133 0.59709147808893415 48 4514 49 3203 50 4596
10046 -3.5900520363431738 1.8593614264757203 8.0040196558260917 193 179 153 0.5214223554556533 47 1630 49 3204 50 5643
10047 -4.5983977042381676 1.0474983371072819 9.2651306959329478 190 177 158 0.70542824777566882 47 1611 48 4507 49 3222
10048 -4.0743998022984753 1.6052453155640427 8.47893345398451 212 200 178 0.88468219921127578 48 4543 49 3225 50 5705 51 5118
10049 -3.6956121138458986 1.9439290695630658 7.9937823548899551 169 157 135 0.64518237812306334 48 4551 49 3228 50 5684 51 5054
10050 -3.1095699275164379 2.5889292291738357 7.0673717720932636 193 177 152 0.59025158606524686 48 5298 49 3237 50 5653 51 5040
10051 -2.9573235962535849 2.6582435260633672 7.0784485443281744 187 171 145 0.20695311148665588 47 1693 49 3238 50 4607
10052 -2.3123778093106022 3.368671193523725 6.1333422493853469 201 185 162 0.33460207638223904 48 4656 49 3240 50 5627
10053 -4.5756532413674424 1.1878511194585275 8.9655757174154793 213 202 182 0.47571146276039422 48 5231 49 3241 51 5149
10054 -4.4920724555536857 1.3533988597450202 8.821508425789709 207 192 173 1.0047486974750763 48 5260 49 3242 50 6609 51 6015 52 5130 53 4985
10055 -4.0021244582130935 1.7495373536993455 8.3071848798520112 117 101 76 0.42933997675248908 47 2239 48 4583 49 3245 50 5708 51 5120 52 4280
10056 -4.0021244582130935 1.7495373536993455 8.3071848798520112 117 101 76 0.42933997675248908 47 2240 49 3246 50 5707 48 4584 51 5119 52 4279
10057 -2.5722903354895221 3.1614204299381536 6.340217589522207 159 145 119 0.33387730956132794 48 5336 49 3259 50 4613
10058 -2.6861566642035664 3.131206947710079 6.328238884018166 147 130 102 1.1404397262592048 48 5351 49 3260 50 5662
10059 -4.7084571890404563 1.2362916593983402 8.9887589497531746 216 203 184 0.84516183379730936 48 4579 49 3264 50 4723 51 5187 52 4366 53 4244
10060 -4.5104881835689081 1.5209112640985802 8.577517634623268 186 174 150 0.67800984990324875 48 4601 49 3266 50 5779 51 4082
10061 -4.475039329986533 1.60902122098159 8.4454566532210791 210 197 177 0.53339386188955284 48 4604 49 3267 50 5782
10062 -4.4710359426401114 1.6137953182937608 8.4571565561021362 210 197 177 0.99032318087429894 47 1659 48 4605 49 3268 50 5783 51 5193
10063 -3.8875206733992824 2.1002190805657452 7.7961743225474631 213 198 175 0.2458617524999249 48 4644 49 3274 50 5750
10064 -3.7342216623458016 2.2942881057672384 7.5723535284972918 187 173 147 0.80681120550058627 47 1244 48 5321 49 3276 50 5754 51 5995
10065 -3.6832638194604543 2.3273766578662056 7.5160131168213002 168 153 132 0.67764494900530892 47 1708 49 3277 50 5755 51 5126 52 5055
10066 -3.3801918684023602 2.510471422272563 7.2523947854076178 196 180 156 0.64945299079655017 48 4648 49 3283 50 5725 51 5058
10067 -3.1278205767964087 2.7462785304829058 6.9614518737691577 159 143 117 1.1858011976977181 48 5327 49 3287 50 5690 51 5063
10068 -4.0570539195889541 2.1712747462803832 7.7059188020844624 182 167 144 0.83241034989810703 47 2322 49 3300 50 4741 51 4066
10069 -3.9583536062855122 2.2793821066480326 7.6404641444094272 170 158 136 0.58659382197816023 47 1732 49 3303 51 5164
10070 -4.8465742598536492 1.5983630414104844 8.4656428242124164 146 130 107 0.34006630552943401 47 2301 49 3313 50 4782
10071 -4.198181450649848 2.0695729919323353 7.9795603871797267 210 195 172 0.76771371476059513 47 1704 49 3318 51 5199 50 5817
10073 -1.3030837461371543 -1.4681017513093211 4.9846635776408617 189 188 183 1.8885638053150502 45 2909 49 3401 50 6030 51 4301 13 1850 15 1974 16 2501 17 2277
10074 -0.32575126096555262 -0.90490689998291129 4.9015073049336531 130 121 62 0.70858221248584585 47 1810 48 3972 49 3402 50 4994
10075 -1.9101662227670191 -1.4978363356735804 5.1569078856571275 180 182 170 0.74378704377627836 41 3386 48 4725 49 3409 51 5432
10076 -0.61384911569179756 -0.54506320308121914 5.2737868858889474 101 109 128 0.30073461644491789 48 4762 49 3442 50 6077 51 5454
10077 -2.5551309581017549 -1.3018398678440217 5.7409099923839255 182 186 198 1.1607020493469349 47 1027 49 3461 50 6108 51 6316 52 5377 53 5704
10079 1.6020911831169686 1.6584700529033214 8.0259291312816661 110 93 73 0.60684776646402605 48 4848 49 3511 50 6179
10080 -1.1791163792542654 0.6248119622292635 6.4881408719752063 51 64 74 2.2238097948558915 45 3510 48 4855 49 3521 52 4688 53 4562
10082 1.0059800197221043 1.9908146442582944 7.5745963784011225 176 162 139 0.58733755752133743 48 4891 49 3555 50 6218 51 5608 52 2893
10083 -0.49114868578233767 1.3892951248066319 6.8544095591323417 150 143 135 0.74589976064604546 48 4906 49 3568 51 5606 50 6213 52 4728 53 3540
10084 -1.3229673970085356 -0.48987510068952095 10.82821877725616 180 168 144 1.5658854475513342 48 4130 49 3575 50 6248 51 5653
10085 -2.1515310658588351 0.52349617784281055 6.72397837269473 152 159 169 1.1651589282105197 47 1953 49 3578 51 5624 53 5338
10086 -1.795840269499561 0.011767161115838918 10.196651779736255 174 162 138 1.0156596158810505 48 4913 49 3610 50 6285 51 5683
10087 -1.9775203600978666 0.28988337531855368 9.8220659817415914 211 199 175 1.5125053088126992 48 4948 49 3615 50 6303 51 5705 52 4840 53 4717
10088 -1.1338999908401584 1.6216601810353315 7.2881512878860883 141 132 123 0.89621301474590298 48 4969 49 3618 50 6275 51 5658 52 4770
10089 -2.1249002189362614 0.15109397444589684 10.028618982298362 187 175 153 0.82906147613954628 48 4947 49 3627 50 6302 51 4700
10090 -2.8488275366929652 -0.3989325522706052 10.826169988883498 191 179 155 0.38011894500624388 48 4946 49 3636 50 6335
10091 -2.4064941760410581 0.22613078216678947 9.9464702154208204 190 178 154 1.5556430916614328 47 1494 49 3638 50 6320 51 5740 52 4858 53 3822
10092 -2.1523858388672701 0.66584702246895378 9.3963372434907306 167 155 131 0.5050577777172286 47 2014 48 4978 49 3644 50 6322
10093 -0.77078982942640129 2.2984191972362424 7.3765987589768081 157 142 119 1.0009424099717328 47 2578 49 3652 51 5677
10094 -1.3871187394540991 1.9392778585814496 7.6525738948986186 59 44 25 1.0955270580426837 48 5002 49 3663 50 6327 51 6420 52 5489 53 5760
10095 -1.0603009642634089 2.2184520261462066 7.3559231330098376 141 125 100 1.1039254886526344 48 5005 49 3666 50 5299
10096 -0.89188444451046311 2.3660676198172048 7.2331095753391441 199 186 167 0.70683860916865338 48 5537 49 3668 50 6316 51 5694
10097 -2.8356388260095624 0.52888882352844024 9.6919973868292857 215 204 184 0.81887200588649867 47 2022 49 3672 50 5375 51 4804
10098 -3.1958188713813147 0.44153242683328325 9.8865344345098727 186 174 150 0.87286469421484991 47 2566 48 5012 49 3687 50 6398
10099 -3.2699764939474645 0.60197209174915312 9.607878954340535 176 164 142 0.63586560107672219 48 5549 49 3706 51 6464 52 5556 53 5444
10100 -3.1739389008357635 0.71082555160249083 9.4247041181552298 195 183 161 1.0779594745833596 48 5030 49 3707 50 6400 51 5819 52 5544
10101 -3.144700316560598 0.76276085741033994 9.3509688320932032 210 199 177 1.0036348733900973 45 3101 48 5033 49 3709 50 6401 51 5820 52 4937
10102 -1.2024325747034217 2.9523888910371374 6.5218272864048812 193 178 157 0.8173074468741468 48 5128 49 3726 50 6367 51 5733 53 3720
10103 -3.646746031776527 0.36110593459901213 10.059934983837914 184 172 149 0.71335082640795233 47 2044 48 5029 49 3727 50 6437
10104 -1.879020744855844 2.4184551313802825 7.098413621629942 146 130 107 1.0148950081139545 48 5122 49 3750 50 6391 51 5761
10105 -3.7961791927078279 0.47289720624768644 9.8660452314781519 190 178 156 0.69795441978362627 48 5055 49 3761 50 6475 51 4954
10106 -3.717074123969915 0.44993190986866477 9.8327611927585075 211 198 179 0.82872190590811878 48 5052 49 3763 50 6439 51 5867
10107 -2.4036378073171414 1.9963162990381871 7.7404128091989728 150 134 111 1.3286384360264725 48 5118 49 3776 50 6423 51 6459
10109 -3.3261251805270566 1.2174966102840103 8.8086128536001436 204 193 175 0.92475437181158604 48 4371 49 3795 50 6482 51 5870 52 4980
10110 -3.8948747427505244 0.78927640587370818 9.4016549514004719 192 180 158 1.4033439583272891 45 3122 48 5113 49 3810 50 5548
10111 -3.031511555095634 1.728555978639404 8.1498327937542516 195 184 164 1.0604422729635363 48 5590 49 3811 50 6487
10112 -2.1272292843566269 2.8083599417161222 6.7493949067795507 174 158 135 1.4149603598442568 47 2706 49 3828 50 6468 51 5815 53 4734
10113 -3.824049160323824 1.177046223836214 8.9072950609917463 186 173 154 1.466319837068859 48 5159 49 3831 50 5586
10114 -3.1086153835153687 1.8182340865387026 8.0628901205922805 207 192 171 1.0531478056957244 48 5165 49 3838 50 6499 51 4967
10115 -4.3753329233741933 0.73911213482254146 9.590225966257437 214 201 184 0.71254500933961396 48 5156 49 3852 50 7094
10116 -3.2148373048354801 2.0915713724512459 7.7659980892719407 201 189 167 1.2792014185521299 45 3292 48 5214 49 3860 50 6521 51 5893 52 4985 53 4836
10117 -2.7745753872484293 2.5266874116262037 7.1481099374210793 133 117 91 0.95644900031680624 48 5248 49 3863 50 5567
10118 -2.4310588424112227 2.7589615213141783 6.7928423299217471 143 126 100 1.5618714158931859 47 2280 49 3867 51 4904
10119 -4.2004343652635123 1.2793528569090327 8.9070475699135798 207 196 178 0.58384480143882367 48 5206 49 3878 50 6551 51 5963 53 4944
10120 -2.9668579396003465 2.4951059937998386 7.258351608600492 195 180 157 1.5291395965220538 47 2274 49 3890 50 5604 51 5009 52 4153
10121 -4.4671028585811809 1.2246281620974866 8.9583892875375231 204 191 172 1.2681892629885534 48 5232 49 3904 50 6584
10122 -4.0229331607572822 1.5779473473690582 8.451750633896939 177 165 143 0.32592305684329198 48 4545 49 3905 51 5079
10123 -3.6799447794465565 2.025586877081694 7.8431201385569178 154 138 112 0.90247627434656064 48 5269 49 3909 50 6556 51 5969 52 5050
10124 -3.8773885548219216 1.9836348897594913 7.9827397898345849 211 199 177 0.43611249664261686 48 5289 49 3937 50 6588
10125 -3.3230643976545977 2.4156843130149745 7.3455053395473264 163 149 122 0.55203139902825271 48 5296 49 3943 50 6561
10126 -3.3230643976545977 2.4156843130149745 7.3455053395473264 163 149 122 0.55203139902825271 48 5297 49 3944 50 6560
10127 -4.4065174691770421 1.5459191492815303 8.4922879528305764 211 199 176 1.4467604625094033 45 3252 48 5266 49 3963 51 5153 52 5105
10128 -3.6293621217859258 2.3360944132861738 7.5021169872534577 208 195 176 0.58568649402364381 48 5322 49 3974 50 5716
10129 -4.5333452017160081 1.7116404935231715 8.3132342142179638 177 161 135 0.57055587743056357 47 2288 48 4637 49 3992
10130 -4.1057502384283868 2.0614228093618427 7.8757224896400864 210 198 176 0.38851133435194507 48 5316 49 3997 50 6639
10131 -3.5544752347757242 2.6037686717208097 7.1559328429315352 193 181 157 0.58065612123048727 47 2347 49 4002 51 5999
10132 -4.7048248901909613 1.6714117942943987 8.4181916311985692 207 192 169 1.5236646303585166 48 5342 49 4023 50 5846 51 5253
10133 -4.5989023693867974 1.7107669371262688 8.3072548085709812 216 204 180 0.43353334230218765 47 2304 49 4024 50 6670
10134 -4.8055755434119787 1.6930937483689987 8.4104392514415789 216 201 178 0.99403602415542414 47 2302 49 4052 50 5877
10135 -4.7477812990333152 1.9024215915120308 8.1985029330411514 156 140 115 1.4527688402711028 47 2338 49 4074 50 6731 51 6109
10136 -1.0808006632698228 -1.4783395000036019 4.8847907147146268 0 0 0 0.33730206669207091 45 3390 48 5375
10137 -0.93510984858298185 -1.2273220436747452 4.7237270310146231 181 185 171 1.0561979724260437 47 3017 49 4103
10140 -1.5211217045618561 -0.67846679984942748 5.5288208799394454 163 160 153 0.84593945170038432 48 5415 49 4143 50 6884 51 6308 53 4465 52 4594
10141 -1.5944856286955784 -0.66168395769079269 5.5656422380956583 26 35 52 0.57359936711349135 47 2436 49 4144 50 6897 51 5489
10142 -0.88685790633063044 -0.30419968894525085 5.5848317661146467 159 156 149 1.1801427491570249 48 5419 49 4150 50 6888 51 5477
10143 -2.5660314936552098 -1.2084695172137878 5.7102480692151198 72 85 117 0.4448269391153149 48 4784 49 4155 50 7279 51 6736 52 5839
10144 -1.8320150604850622 -0.66021699763475472 5.6741711618802384 162 164 151 1.0247441745697337 48 5426 49 4157 50 6115 51 5501 52 4600 53 4483
10145 -2.4356934278843143 -0.85754795963231201 6.6213525782431626 93 95 108 0.93364030890791727 48 4821 49 4193 51 6943 52 6071 53 5944
10146 -1.5674415981348251 -0.06601465501114441 6.0332224551097688 17 22 39 1.149939338670086 47 2481 49 4194 50 6937 52 5406
10148 1.2959071482375004 1.8266802225212904 7.807484185830659 93 77 55 0.66796678436561041 48 5476 49 4214 50 6202 51 5591
10149 -2.208112462077799 0.15541935292305684 6.4788361900934657 174 171 162 0.57068773260980188 48 5478 49 4216 51 6368 50 6962 53 4571
10150 -2.4838522630702795 0.097773530806182368 6.7333297733919011 200 197 192 1.8182213460102259 48 4893 49 4221 50 6220 51 6376 52 5876 53 5734
10151 0.066443998769388418 2.1193980547084506 7.4164137857860011 115 100 79 0.75380693921011843 48 5499 49 4239 50 6254 51 4610
10152 -1.8082619866208491 0.98827303389980858 6.932363680638967 45 51 85 0.66253052969976289 48 5505 49 4242 51 6395
10154 -1.8931867347658289 0.55104755533100824 9.4787860718294468 176 162 135 2.0378961733847358 48 5504 49 4257 50 7003
10156 -1.0128633344162217 2.7251139601721825 6.7429464658885845 156 140 115 0.88380282507272045 47 2940 49 4295 50 6333 51 4716 52 3037 53 1627
10157 -3.0879820859499856 1.3336021208016384 8.6047207216979302 209 201 182 0.76082715889975416 48 5564 49 4318 50 7064 53 5789
10158 -2.6434180375211365 1.6288306800900831 8.2616844162416925 204 197 181 0.60574025008689047 48 5836 49 4319 50 7053 51 6456 52 5539
10159 -3.9237765956409212 0.53664842538771484 9.6283668099226638 214 203 183 1.1635256519267727 48 5562 49 4326 50 7070
10160 -3.8136205506440155 0.80874292359918698 9.3870648799588992 223 212 192 0.67785578137770708 48 5579 49 4327 50 7078 51 6485 52 5595 53 5476
10161 -2.7043422927052192 1.7882786948732383 8.119205411678811 166 155 135 1.5896993494281944 48 5583 49 4331 50 6449
10162 -2.7631213718883014 1.9926038673201893 7.6737211153633131 202 190 164 0.73148196014100697 48 5593 49 4339 50 7066 51 5825
10163 -2.1389616502713302 2.8624819590966668 6.6336410339132721 171 157 131 1.7845721507569614 48 5636 49 4352 50 6469 51 5816 52 4888 53 4735
10164 -4.4580561860822696 0.88766226508398993 9.350514275601439 212 201 183 1.2730358304717726 48 5611 49 4375 50 7112 51 6531
10165 -3.1280033102727032 2.3476736781852545 7.4834310343950552 169 154 131 1.1027811174563411 48 5648 49 4387 50 6541
10166 -4.1626465793037735 1.4584023260586731 8.7061251451104251 164 149 126 1.2379991395245815 47 2673 49 4395 50 6587 51 6532 52 5962
10167 -3.2639468388278488 2.4048942178117776 7.4168683713533143 165 149 123 1.5803859266801619 48 5658 49 4403 50 7119 51 6502
10168 -4.5465722893160327 1.2396254542335257 8.9370032955818424 186 174 150 1.0553585207675467 47 2670 49 4412 50 6607 51 6549 52 5668 53 5542
10169 -3.9559154988997927 1.8725663714255345 8.0854976643414727 212 200 176 0.60785521315661561 45 3671 48 5655 49 4414 50 7134 51 6534 52 5618
10170 -3.2624201912899458 2.4525085234836941 7.298542037032469 215 200 179 0.43388325866294508 48 5673 49 4420 50 7120 51 6503
10171 -3.0458202877388465 2.8028356978592708 6.9113301859010674 129 108 79 0.20474327611607088 47 2776 49 4422 50 7123 51 6506
10172 -4.6432587513566359 1.3260941728055429 8.8517948590841602 215 202 183 0.99257441889987719 48 5259 49 4431 50 6631 51 6563 52 5980 53 5838
10173 -3.8037784029326613 2.3328366019425237 7.5128378601624517 162 146 121 2.1648052504215425 49 4446 50 7146 52 5622 51 6535
10174 -4.9105005038791623 1.6034115380009624 8.4281392503961499 223 209 187 0.14150323140443613 47 2746 49 4475 50 7195
10175 -4.8663553512119959 1.7729409302874979 8.3289745675094018 120 103 77 1.2074696843337183 47 2767 49 4495 50 6729 51 6108
10176 -1.7381931225079399 -1.7333783564205887 5.041032463545946 5 2 19 1.8262629577236889 49 4512 51 6710 52 5810 43 1923
10177 -2.0976768748600905 -1.2234507685993525 5.3887669433035432 159 156 51 0.39617164394631477 45 3747 48 5739 49 4535
10178 -2.5114315173703905 -1.0996064540720609 5.6013283193229393 39 50 105 1.848170922068151 48 5755 49 4545 50 6905 51 6318 51 6737 52 5840 53 5924
10179 -1.5913211577705999 -0.56646181066637658 5.6765144833170558 30 36 70 0.32398554455968032 48 5757 49 4547 50 7281 51 6739
10180 -1.3565471368730895 -0.38444564180991114 5.6831365463405614 162 159 152 1.8549213525181372 48 5758 49 4549 50 7283 42 3490 52 5383
10181 -0.8183720423996691 0.12013204279584554 5.9370071913814959 145 146 46 0.50760250638688387 48 5768 49 4559 50 7295
10183 -0.87538317562774937 0.28608011313430293 6.0806344056686976 159 153 141 1.8485576719807852 45 3801 48 5780 49 4568 50 7299
10184 -2.0947310498535843 -0.29989497776636814 6.0649249723126717 166 166 158 0.7927083371847341 48 5783 49 4573 50 7309 51 6754 52 5861 53 5719
10185 -2.1752143446766272 0.70475492895461078 9.1264611834139515 207 195 171 1.3967256274387634 49 4606 50 7338 51 6792 52 6095
10186 -2.3543499939499091 1.436505628922415 8.1651761351202765 100 92 81 0.65448677741139383 48 5551 49 4620 50 7345
10187 -2.0412289032952651 2.3442546664819934 7.3005356794953791 189 177 155 1.6701415449136685 48 5841 49 4630 50 7047 51 6449
10188 -3.3404456876037605 2.5860521837851085 7.2336526074095211 204 192 168 1.0189291887658281 48 5882 49 4684 50 7135 51 6516
10189 -1.7217815537182966 -0.0066151170077576723 6.1858722478003916 143 140 135 1.5169205279442728 48 5918 49 4757 50 7467 51 6944 52 6072 53 5940
10190 -0.32481321317188444 2.565549999002358 6.9501214038633448 202 189 170 1.7639151072011467 48 5931 49 4770 50 7478 51 6957 52 5884 53 5350
10191 -0.74135262871902574 2.7712396525099066 6.642880471492254 194 181 162 2.0896439943071274 48 5938 49 4777 50 7482 51 6789 52 6084 53 6037
10192 -2.3491484880096407 1.2734626450249791 8.4964103880990915 194 186 167 0.72741719604634114 48 5934 49 4780 50 7486 51 6976
10193 -2.0278880174349188 -0.4012330108371141 6.021369250923315 19 27 48 1.9848699734011923 47 3093 49 4830 51 6938 50 7464 52 6069 53 5933
10194 0.13826888870813922 1.9640804653356776 7.339362775351038 64 50 37 1.473914977630284 48 6016 49 4837 50 7539 51 6952
10195 -4.1820000139431963 0.95620139840924256 9.2941072044956314 171 156 135 0.63825558392700543 48 5994 49 4860 50 7548 51 7049
10196 -0.86411776917841165 -1.7715949679952951 4.7003857089672145 11 9 31 1.4547684422975224 45 4039 49 4872 50 7557 42 3692 51 7060 52 6210 44 1800 53 6013
10197 -2.1350066662051264 0.68924828791751691 8.6724297305644686 208 197 177 1.5263039294659198 48 6017 49 4891 50 7609
10198 -1.442854377013566 2.0553191608547539 7.3952828919308979 197 184 167 1.3609521529108919 47 3171 48 6021 49 4894 50 7580 51 7079 52 6230
10200 -1.499925607557316 -1.8830357947533716 4.8391354202581107 153 153 153 0.45963529070481579 47 3202 48 6056 49 4918
10201 -1.742576067742702 -0.19310834572430632 6.0311348442666786 22 33 53 1.0751398094912479 48 6078 50 7613
10203 -2.0392263190906252 -0.59012156415502548 5.8276968015953683 139 136 127 1.5095010762206407 48 6075 49 4938 51 7118 50 7630
10204 -1.9864995603686502 0.1972642792832163 6.2885612959207329 159 157 157 0.55972703430792214 48 6086 52 6288
10205 -2.1378193562065837 -1.9182432920156807 5.1075900401664036 10 12 35 1.6906173447064072 47 3248 49 4960 50 7654
10206 -0.63487089313648382 -0.87305291009266084 5.0385812484271275 36 31 21 0.81766762609682808 45 2444 46 1388 49 2207 3 2375 2 2490 1 2896 4 2322 5 2971 6 3115 7 2588 10 1599 36 3493 37 2684 35 2063 38 2527 39 2043 41 2933 9 2057 40 1588 42 1704 33 2745 32 3844 31 2670 48 3350 50 3882 51 2331 30 1121
10207 -1.6027704009929535 -1.8719463473336988 4.8958775596924822 166 168 160 0.87224737523125784 11 2389 3 2291 2 2393 1 2815 6 2605 7 2028 9 1943 10 1893 41 2837 39 1952 42 2113 46 1324 47 1301 49 2733 45 2393 48 3289
10208 -1.5491396812274143 -1.548637660697648 5.0176732715361361 28 27 36 0.96081157041943477 39 2366 41 3376 40 1921 42 2144 49 2749 36 3815 37 3005 45 2416 48 3969 50 4997 51 4305 52 2742 53 2207
10209 -1.0877860876025671 0.13593089740290196 6.0235815256139791 178 175 171 1.0528489542335462 2 3290 36 4268 34 3940 1 3711 37 3480 35 2903 41 3977 32 4299 49 2825 46 1855 47 1881 48 4816 50 5106 30 1541
10210 -1.5628874544576925 -1.2059124309018987 5.1597111977109131 181 187 214 0.63130355741013588 39 1197 41 1806 49 1267 37 2220 45 1645 47 738
10211 -2.1674447274351492 -1.2302678277734669 5.4050081681331683 170 170 66 1.2152555721793936 45 3758 49 4534 2 4454 1 4890 5 4169 4 3520 6 4264 7 3782 9 3401 48 5737 43 1940
10212 -1.4147101639271098 -1.9358149570910856 4.7930069074361681 57 72 111 0.84853316616415175 39 3100 41 4298 40 2758 45 3371 46 2374 42 3192 47 2366 49 4089 32 5012 31 3764 48 5360 50 6834 51 6249 52 4530
10213 -4.2471239469545372 1.1892560225282529 8.9850409417385908 90 84 74 2.7124609628854777 48 4471 49 3194 45 2707 47 2191
10214 -1.6120272438016379 -1.9971613958193868 4.8375244541084124 164 168 167 1.1190111678584642 45 3892 46 3065 47 3014 49 4732 41 4537 40 3001 48 5893 50 7245 51 6705 52 5804 44 1573 43 2046
10216 -1.739713466657973 -1.8112150841814507 5.0065753984669072 59 62 81 0.52203603073303417 48 1190 50 60 51 933
10217 -1.5494544424796861 -1.5804437975136043 4.9998839205574521 148 146 149 0.56540546513031786 48 533 50 62
10218 -0.66887072294553607 2.5391747095937003 6.9448829330302466 132 117 96 0.59113172410299875 46 130 50 449
10219 -0.53425328971497177 -1.5542520442008743 4.6913267292914274 156 159 210 0.50881288565317762 49 1119 50 1326 51 897
10220 -0.5419011524316184 -1.4644868015009758 4.7228867960581598 146 159 203 0.54509106847696387 49 690 50 1347 51 909
10221 -1.2436252478352814 -1.7447416465528067 4.8379210079357362 41 44 59 0.15253715826731773 42 535 48 1880 50 1357
10222 -1.7619109934314399 -1.678612493083405 5.0455161989801081 46 45 53 0.47666734113976944 48 1206 50 1393 52 31
10223 -0.61792152556940128 -0.92803236213291374 4.9675634790333794 117 112 55 0.9174635964171336 48 1995 50 1416 51 964
10224 -2.2608666894566496 -1.9614896181633383 5.7951285018074499 212 209 204 0.38567413243230669 49 413 50 1476 52 1741
10225 -1.8388609386106873 -1.2917311373034674 5.2213875568584216 79 90 82 0.55538513166731462 34 1002 50 1487
10226 -2.2852982047104531 -1.9171197842509289 5.8098076530004681 42 41 39 0.53651218367005749 49 819 50 1502 51 1027
10227 -1.1057249114889807 -0.18223907401509276 5.7496795021986191 120 129 142 0.48491783767557556 49 920 50 1624 51 1114
10228 -1.2575561432919335 -0.0008436480481854449 5.9936910275194641 46 46 56 1.1756866236795576 49 940 50 1689 51 551
10229 -2.063270163770508 -0.13510395525422078 6.2316087593285117 24 23 29 0.89712671939747324 49 1466 50 1736 51 1203
10230 -1.2654843002161986 0.35844945133923395 6.279177333540594 163 159 160 1.2129246114421006 49 975 50 1760 51 1196
10231 -1.2097558294520496 0.41504557579817292 6.2962552540270238 75 74 71 0.78193767639552725 49 978 50 1762 51 614
10232 -1.6735632941620442 1.9559356146682148 7.7257618787867655 105 92 73 0.67287663206650994 49 1084 50 1985 51 2063
10233 -1.3953110226730618 -1.7490941660120145 4.8984869971889999 4 5 20 0.39785461150264823 48 1895 49 1620 50 2182
10234 -1.6218750381948248 -1.7935655929390379 4.9416345541380169 158 159 177 0.4731543150653636 48 1893 49 1138 50 2188
10235 -1.6685230671629083 -1.6352449573831906 5.0321274007846029 191 189 192 0.75123621833847609 49 1171 50 2222 51 1588 52 1189
10236 -1.5876890233423275 -1.5005478832439829 5.0496194033535833 53 53 55 0.57031180968542072 48 1966 50 2231
10237 -1.3536814607081902 -1.3663135843451335 5.0213159066250874 170 168 172 0.49401800554338426 48 1980 50 2240
10238 -1.8409031902449005 -1.6339184614986757 5.0936903597756071 24 23 28 0.25484811555400588 49 1193 50 2249
10239 -1.6236278029692268 -1.4873522934375485 5.0652764541915491 185 183 184 0.65505066250450072 48 2685 50 2256
10240 -1.1595176624382577 -1.1405854652961847 5.0371586206960473 165 179 196 0.48438846341921965 48 2024 50 2274 51 1625
10241 -0.81388459408499914 -0.79911762161079514 5.001921247032076 39 25 38 0.38882202925826076 49 2208 50 2301 51 2347
10242 -1.7918673280595854 -1.2459212422429149 5.2241087035540339 165 170 202 0.69477536263138784 49 1291 50 2311 51 1666
10243 -0.9415376116595644 -0.78695129665375996 5.2214099027298753 121 131 140 0.52448230095569837 42 1360 48 2757 50 2320
10244 -0.95695628685638567 -0.75804186666040707 5.1928372671786294 39 44 86 1.1164033138037603 48 2759 50 2321 51 1674
10245 -2.2752856724138857 -1.9549691992922136 5.8129883400477951 32 31 29 0.3754551584932318 49 818 50 2323 51 2366
10246 -2.5480564997604036 -1.3691216094648659 5.4886788556302939 40 38 39 0.64684658818737839 48 1439 50 2386 52 2217
10247 -1.4003814499785729 -0.28954052186200951 5.81220148433815 116 123 133 0.89800120320016752 48 2239 50 2450 51 1764
10248 -1.211274952219918 0.291796966012218 6.1830716520418019 36 31 27 0.80931067174728544 48 2913 50 2509 51 1818
10249 -1.163784263908116 0.41096737479123724 6.2800315329976932 38 34 31 1.247006410596095 48 2349 50 2514 51 1826
10250 -1.4745105165774368 0.25678682016653537 6.2690954954230333 19 14 10 1.0740273795883097 48 2928 49 1908 50 2531 51 2536
10251 -1.3657673146117124 0.33261192948107499 6.2870071773729324 36 31 27 1.0755664514042602 49 1473 50 2541 51 1844
10252 -2.125692000858443 -0.066040506414353911 6.2633820572805172 153 149 148 0.74967914798641555 48 2352 50 2550
10253 -1.8250306819123912 0.19768889899944733 6.3523435177406427 20 16 15 1.242655652646625 48 2940 50 2558 52 1433
10254 -1.7638759075342154 0.26669721716665112 6.3676599423362452 50 47 42 0.52800441184917157 42 1091 48 2363 50 2560
10255 -2.0508757158553808 0.19246076784707941 6.4303416032566307 167 165 166 1.0460156945474848 42 1082 48 2384 50 2571 51 1893
10256 -2.0524923314718504 0.19191372285438124 6.4233218758232127 167 165 166 0.75458412264646701 42 1081 48 2385 50 2572
10257 -1.992079865328706 1.419527239895672 7.3825754349682473 128 127 145 0.91872103096726032 48 3062 50 2722 51 2030
10258 -1.3044852366517854 -1.593064057800754 4.923135376385094 166 165 173 0.51142616578035627 48 2638 50 2964 52 1681
10259 -1.3649378130306533 -1.5874163464377204 4.9464463223919521 14 12 13 0.28044686410482061 49 1159 50 2977
10260 -1.2666221834396914 -1.5330234415819457 4.9316911819275635 181 180 186 1.1444860660408174 48 3309 50 2980 52 2139
10261 -1.8273739332847732 -1.6127976335383567 5.0843920120952921 187 186 191 0.72814450383440299 48 2681 50 2998 51 1583 49 1664
10262 -0.58399663276254898 -0.5109969701083964 5.266212285868499 21 29 48 1.1641093893074637 49 1741 50 3057 51 2378
10263 -2.3580445992880668 -1.836370882294577 5.8181303032532563 26 25 21 0.82850491001261195 49 1742 50 3060 51 2381
10264 -2.3793461406340031 -1.7479888833535666 5.7097265869267684 17 16 12 0.63265080695445142 49 1743 50 3061 51 2382
10265 -2.2587348204606656 -1.2122016551387138 5.4500605291090451 43 37 0 0.97002483495709857 48 2781 50 3075 51 2408
10267 -1.5275102826976095 -0.86606770377416264 5.391733235427024 39 44 84 0.42046058164093064 42 1365 48 2787 50 3081
10268 -1.5329264243863949 -0.86499029638800173 5.3864286605242295 39 44 84 0.37297807553514212 48 2788 50 3082 51 2402
10269 -0.55648512891192992 -0.13448824177950211 5.5855897187819945 45 51 63 1.3392192595856001 49 1799 50 3108 51 1739 52 1779
10270 -1.8118985912463139 -0.69751932579308396 5.6627385401096424 26 29 48 0.39190043634497451 49 1375 50 3121 51 2440
10271 -0.93009608568175117 0.094775438666325776 5.9346468360296161 62 56 9 0.83739830912594115 48 2880 50 3158 51 2470 49 1853
10272 -0.8924078405143766 0.12309267961553236 5.9515160463863772 151 144 71 0.83097487490881283 49 1854 50 3161 51 1782
10273 -1.7442209372229867 -0.29252049278885039 5.928931240310872 173 182 197 0.79682969316467955 48 3419 50 3169 51 2479 52 2249
10274 -1.1554349980176606 0.13299880898950434 6.0181505609533454 53 49 50 1.2375286912067529 50 3173 51 2489 52 2260
10275 -1.1704763243198675 0.14576463604939571 6.0578934190391891 155 151 152 0.89059030741187617 48 2904 49 1881 50 3175 51 1792
10276 -2.0223219009028486 -0.25181566878084094 6.098974263914144 28 43 62 1.208265150454223 48 2322 49 1454 50 3193
10277 -1.7179695493614697 0.0444740004790442 6.1944993574447746 34 29 26 0.3733056451340292 48 2920 50 3197
10278 -1.6463406579413282 0.18115970389275604 6.2623776205037416 42 38 37 0.95170142947565095 49 1906 50 3220 51 1838 52 2285
10279 -1.6644904191701697 0.33924754101772181 6.3931705398059169 31 28 23 1.1134232266251913 48 2945 50 3241 51 2574
10280 -2.1632957726690467 0.089314754338371022 6.4121165816463526 29 25 23 0.91740520908231549 48 2956 49 1933 50 3246 51 2586
10281 -2.1626045631455195 0.093787758367083265 6.4164335701446706 29 25 23 1.1581045442717626 48 2957 50 3247 51 2587 52 1890
10282 -2.1635705166844938 0.14491137049032315 6.4445690114062835 20 16 15 0.91815658221733421 48 2958 50 3248 51 2590
10283 -1.8304716808698984 0.31127588789054167 6.4418920883067576 32 28 27 1.1215644153532192 48 2967 50 3251 51 2593
10284 -1.8382182185307299 0.61733200831024737 6.683505124082223 56 66 76 0.79782461938864879 48 2999 50 3290 51 2627
10285 -0.93364355186261971 1.2674279212497057 6.9047450588843118 121 115 103 1.1462126877427647 49 1975 50 3320 51 1949
10286 -0.23136143231390896 1.8587064550169965 7.2552380166610009 151 135 113 1.6885730890083386 49 1990 50 3324 51 1966
10287 -1.8297264330369787 1.2704982828290117 7.1793257805827064 127 125 136 1.7305784400347104 48 3047 50 3385
10288 -0.80852614748653817 2.2204389467656798 7.4019407143744393 191 176 153 1.0417057010263375 48 3576 50 3387 52 2423
10289 -3.2265985430186186 0.87375958838575452 9.2972515980159027 208 195 176 1.1013486125139398 49 2039 50 3476 52 3211 53 3983
10290 -3.0318921747404248 1.0627077031988805 8.9893778626149849 170 159 139 1.0223624613615567 48 3636 50 3477 51 3792 52 3187 53 2874
10291 -3.9745195073966526 1.7044519735611945 8.3281672317108519 203 189 167 0.52610848462423532 48 1784 50 3611 51 3017
10292 -3.9468027979945872 1.8464703635421398 8.168956322463222 230 219 197 1.1047235448986445 49 2084 50 3612 51 4037
10293 -3.8090174151899903 2.5028033890712766 7.4158872963454181 188 174 148 0.49663518582004529 49 2109 50 3657 51 3058
10294 -1.2829514818407513 -1.8265819453159222 4.8251243842359477 166 165 169 0.35977491623460106 49 2148 50 3826 51 2254
10295 -1.2346941109076193 -1.7798797618696804 4.800463267567074 24 29 49 0.88490511824199014 48 3281 49 2149 50 3828 51 3163
10296 -1.1229601851666209 -1.5267095373639767 4.881300085179233 164 168 89 0.47057314234757203 48 3952 50 3841 51 4295
10297 -1.1990313085282551 -1.5408955122958343 4.9029724784116988 165 168 87 0.39395691309770825 49 2163 50 3842 51 3172
10299 -1.8008695732595488 -1.5529220021717118 5.0922430643499252 187 185 190 0.57987828165497568 48 3326 49 2179 50 3868
10300 -1.6771976117130052 -1.4653936000359475 5.0813164799687902 177 175 178 0.57090246535876088 48 3328 50 3873
10301 -1.5306886196480027 -1.4051169744806395 5.0693997038365 66 65 70 0.66318065987081654 49 2186 50 3877 51 3200 52 2156
10302 -1.818092665116714 -1.4453228642982052 5.1414401920545529 68 66 69 0.76606913318336933 48 3986 50 3886
10303 -1.8573407051888493 -1.1314415396234214 5.318223123857301 27 20 0 0.8374243389039755 48 3369 49 2223 50 3930 51 3252
10304 -2.4532490164220744 -1.6514061307497603 6.1195219259346976 74 81 107 1.4364204885808824 49 1774 50 3944 51 4363 52 3607
10305 -2.5492810141367794 -1.3271169920940404 5.432129942606732 45 49 73 1.0631733826903329 49 2242 50 3946 51 4348
10306 -1.1711838349362778 -0.21857657949591322 5.7499769015859439 48 52 79 0.99700809445592653 49 2287 50 3973 51 3285 52 2239
10307 -2.471034408287669 -1.2019649833137049 6.2960769923761966 71 78 97 0.5278679724836739 49 1837 50 3990 51 3306
10308 -2.4627637930542696 -1.2055266834534857 6.3083741225938432 71 78 97 0.71405732165762226 49 1838 50 3991 51 3305 52 3644
10309 -2.4583598781836455 -1.1663154321584281 6.3386578283023214 163 171 190 0.36247914338687881 49 1839 50 3992 51 3309
10310 -2.4583598781836455 -1.1663154321584281 6.3386578283023214 163 171 190 0.36247914338687881 49 1840 50 3993 51 3310
10311 -2.4787432387117176 -1.0923876232670884 6.2403504948381991 151 160 177 0.39034727496502214 49 2292 50 4001 51 4392
10312 -2.4970898425885681 -1.0323495202972433 6.2229115622795588 77 86 103 0.61276000413761855 49 1848 50 4003 51 4410
10313 -0.97785756319886152 0.068522403973779539 5.9165897521071003 148 145 71 0.74591401107168576 48 4059 49 2300 50 4010 51 2469
10314 -0.96135923358018394 0.17014697019617345 6.0085166774283056 136 141 55 1.3679119217147375 48 4063 50 4025 51 3319
10315 -1.6776063541415138 0.068721009877268632 6.1894718987578203 174 169 166 1.0249383465847075 48 3430 50 4057 52 2841
10316 -2.0648258409917317 -0.13030972462924093 6.1837921795982966 6 5 11 1.6507998577291265 48 3442 50 4073 52 2835 51 2527
10317 -2.0212881103614988 -0.09409632306513642 6.2030121138347347 156 152 151 1.0783486908658191 48 3443 50 4074 52 2836
10318 -1.7049223918076699 0.20333964648918948 6.3103731148803259 159 155 154 1.4005259006201529 49 2371 50 4083 52 2284 51 2535
10319 -1.3240630954904886 0.36145190272920852 6.3083848944327796 155 150 146 0.69761523449684493 48 3460 49 1914 50 4088
10320 -1.3240630954904886 0.36145190272920852 6.3083848944327796 155 150 146 0.69761523449684493 48 3461 49 1913 50 4089
10321 -2.12020466922145 -0.032739676130947068 6.3008582045931618 40 36 35 1.4099726345844306 48 3466 49 2368 50 4101 51 3411 52 2863
10322 -2.0787810528975066 0.000648763179495033 6.3088859282400778 169 165 165 0.92745988672438429 49 2370 50 4103 51 3413 52 2865
10323 1.5810140446682699 1.9970935035430823 7.6250952302967754 162 150 128 0.36378734087664455 49 2871 50 4113 51 3420
10324 -2.064502236023106 0.13605579958445557 6.4000103760914655 167 163 160 0.64436987146116409 49 2383 50 4114 51 3424 52 2301
10326 -1.975202472158782 0.26625785315131917 6.4716705221083641 158 156 157 1.2442365310944727 48 3489 49 2397 50 4123 51 3430 52 2874
10327 -0.55098741450695032 1.3178121384561856 6.8263344452288779 116 109 101 1.1012370891047987 49 2899 50 4139 51 3452
10328 0.98447670712610202 1.9674203172959559 7.6472828939907931 148 131 111 0.63985839382903498 49 2401 50 4144 51 3455 52 2313
10329 -1.2202589584178594 1.0295446332472904 6.810294916564815 115 117 148 0.27288863640412026 48 3522 50 4155 51 3465
