# 3D point list with one line of data per point:
#   POINT3D_ID, X, Y, Z, R, G, B, ERROR, TRACK[] as (IMAGE_ID, POINT2D_IDX)
# Number of points: 353, mean track length: 8.5559597090095139
23049 2.430411947808 2.8045217782696876 10.869646642067803 0 0 0 1.7249653436411794 12 6456 20 7792
23050 1.5930281359235536 4.005872860737834 8.1993371288650998 33 39 37 0.98111023735650194 20 7840 28 7574 21 8371 30 6696 14 7212
23051 7.0818033114760199 4.8689359097800899 7.0756080337152722 213 221 200 0.33654928947911239 20 8135 26 8147 27 8251 28 7580 19 8212 23 8331 25 8329 18 7826 22 8226 16 7678 21 8369 17 7427
23053 1.4175716807185776 4.7214564991083954 6.3713681693554181 69 76 69 1.4074969731687295 24 8209 26 8199 28 7626 23 8383
23054 -6.6216056916877264 -1.8327311994174134 9.5068115726285924 13 9 6 1.164870850712685 20 8260 26 8386 27 8361 28 7694 19 8310 23 8446 25 8423 18 8095 22 8321 21 8482 29 7416
23055 -6.4881992665424537 3.4709749794329032 8.355956578865781 133 74 57 0.47579279037823652 26 8356 27 8475 28 7790 29 7746 30 6725
23056 5.4551066639441554 5.8404545714767897 6.7337621712471467 40 47 55 0.81553425841048643 20 8357 24 8390 28 7807
23057 -5.5049137709781171 2.6805428721746645 5.0932468618127906 253 183 164 1.9587737805103627 26 8218 27 8495 28 7816 29 7599
23058 -2.774506341018014 4.8760646630474573 6.5600076006801782 83 76 182 0.56733743988217145 20 8235 28 7827 22 8087 21 7918 29 7628 61 11194
23059 -5.2068907849360997 3.1938925336222033 4.9608326500783662 154 130 123 1.9720826290099114 27 8503 28 7831 29 7788
23060 -4.8783051482973345 -2.5059928905750102 9.2200284829377157 9 8 4 0.31206934848567647 24 8432 27 8505 28 7835 26 8518 29 7793
23061 6.3325438119639657 -0.24382405230189849 8.4026023266406025 0 0 0 0.78350572508116567 12 6563 24 8277
23062 -3.0767301551489967 2.6408398172756109 9.8994785908962637 180 121 91 0.18670693146520553 24 8480 28 7884 23 8643
23063 6.9306427012020135 4.4737874547056444 7.3097672260211555 111 117 107 1.1628648437564972 12 6630 28 7895 11 6671
23064 0.54374437118697505 4.58844010725816 7.3039390179795385 114 120 116 0.44674230058552455 20 8353 28 7927 22 8424 23 8554 25 8533
23065 -7.2453228485103676 3.8967161948970532 7.9198308196241429 108 110 104 1.1637266722127029 26 8574 27 8613 28 7951
23066 -2.892272901584187 5.0971101794902971 6.6514283375665135 80 74 162 0.92961211709850944 24 8564 26 8514 27 8636 28 7967 23 8728
23067 6.7737905825207587 4.159377487457359 7.0749388159317084 108 119 105 1.1031606953131321 20 8453 28 8010 16 8112 19 8505 21 8658 17 7762 23 8641 25 8621
23069 -3.7778313511550632 2.0782062180573386 7.5070133118309164 88 95 101 1.8465333735057481 26 8595 27 8753 28 8095
23070 5.7256646419635686 5.534530970841022 6.6706776827685115 38 45 37 1.2701381255754263 20 8658 24 8706 26 8671 28 8137 25 8835 23 8887 19 8713 21 8866 17 8015 29 8105
23071 -4.226635612206179 3.9677340730539732 10.296781450877425 68 73 79 1.1513885283316698 24 8790 26 8727 27 8834 28 8191 23 8965 25 8906 18 8448 22 8825 29 8154
23072 7.6444085376737343 1.424721497149257 7.6463864129934764 203 202 225 0.78590387689234753 24 782 57 3564 25 810 28 683 50 3624 67 1307 51 4019 49 1673 53 3973 54 1495 55 3304 35 3755 34 4462 42 4284 44 4455 10 4477 18 730 16 737 17 644 19 793 20 767 26 836 27 906 32 2700 66 1342 68 1281 70 1326 65 1381
23073 7.6816356101824841 1.7402904573538058 7.7178776142926395 28 112 189 1.0021880111410224 20 5068 44 6540 42 6143 10 5721 26 5037 24 3240 25 5235 17 4182 28 4498 29 4504 32 3537
23074 5.49322710714367 -0.10037409080641965 8.9954050902179326 11 17 32 0.65773766246862242 3 7203 1 6589 9 3445 41 3189 39 4825 11 2969 12 3095 19 4872 18 2465 28 2404 59 5668 60 5407 58 3039 43 5568 55 4269 47 4989 46 4782 48 3140 31 1566
23075 7.6958862867505724 2.2479672408187037 7.9042490885373926 74 114 180 0.47848363887045342 12 2343 16 2793 17 2732 18 2991 20 3194 22 991 26 3312 28 2838 42 4525 43 5004 45 3411 44 4683 46 4000 48 5800 47 5793 50 4041 52 5646 51 4503 67 1641 49 4506 54 5543 55 3668 56 3784 57 3742 36 5534 35 5830 34 4570 33 3883 27 1060 19 1002 25 3408 29 2989 21 1003 23 1024 68 1585 65 3741 69 3630 64 3671
23077 7.483456343710376 2.3081253167787801 8.0989262099546906 38 93 194 0.66825952453176996 10 4639 12 3563 28 2904 59 6019 43 6011 27 3437 19 3308 23 3418 42 4517 44 4680 48 4245 46 3987 50 4029 54 4103 36 5529 37 6098 29 2979 32 1800
23078 3.280306551927394 3.7202466591108885 8.9381392163906153 114 112 110 1.1717245084184025 2 4990 3 2954 34 4775 4 6007 36 1656 35 4256 6 5207 7 6767 8 6074 9 4483 10 4893 12 2524 28 3172 43 3762 44 3162 45 4956 46 4071 48 4310 47 2047 50 4096 52 5697 51 6085 53 6017 54 4169 55 5937 56 3935 59 6156 60 7214 58 4681 42 6260 41 5161 57 5320 40 5649 39 6539 24 6549 27 3761 19 3652 32 3737 68 5099 66 3763 70 3804 69 3782 65 1946 64 3845 61 5584 62 3139 63 1856
23079 3.9581454652813082 2.5156668422033559 9.3754700453534792 139 143 133 0.39828274052976304 4 6916 20 3325 24 3432 16 4611 15 2964 28 4634 59 4822 57 3671 43 4820 42 5361 45 4700 53 5762 56 3696 41 4428 37 4980 39 6364 35 7102 34 4604 2 6224 3 6413 1 6939 10 4674 26 3425 31 3259 32 2859
23080 -2.271382177708487 2.3409467646867852 10.601054487301958 41 46 43 1.3031633648043681 12 3616 14 2725 15 3075 28 4711 14 6270 16 5925 20 5301 19 3565
23081 -3.109689824027996 -2.3482211150503107 7.1929997033299529 16 66 127 0.5193150031725543 8 7632 16 6454 24 6068 28 5473 15 6549 19 7129 20 6048 27 7145 25 7224 35 7699 36 7294 29 5428
23082 -6.6443341927825328 3.0329790058672299 7.3699213371243397 106 91 84 0.93324242846636452 16 6987 20 6922 28 6204 17 6030 18 6561 21 6091 19 4416 18 5522 23 6048 24 4390 25 6028 26 5769
23083 0.86034500246674317 3.5637075476455879 9.005906607473678 25 38 49 0.93425159094102295 20 7324 60 8389 2 8411 4 8209 5 9296 8 8519 10 7307 42 6203 12 5364 28 6732
23084 5.573448586410124 1.5231548342716579 9.4613696721135625 52 124 232 0.51684787171703228 2 8337 3 8536 1 9247 5 9219 9 8695 13 6068 11 6178 12 5744 14 6766 16 7240 18 7436 20 7183 25 7921 33 6562 28 6596 59 7151 57 5679 55 6439 23 6532 27 7278 26 7213 31 5858 32 4996 40 7053
23085 4.984500298750512 -0.062761188545523358 9.4397423465237953 71 145 221 0.65517465997559121 36 4939 4 5294 28 2392 58 4109 42 5020 44 3875 26 4832 29 2598
23086 7.6143973857756322 0.60920669907325031 7.4110201335148771 86 89 98 0.55748311399934158 16 7208 34 7638 18 7406 15 7253 19 7785 20 7130 21 7363 17 6264 22 7223 23 7343 24 7148 25 7883 26 7131 28 7126 43 7773 44 7671 45 7461 49 8455 50 8018 52 8043 56 6168
23087 5.2663893940033333 1.1491223572491809 9.5954901362298592 119 122 129 0.25424867906789606 40 4186 39 4946 38 3928 7 6331 5 6785 4 5568 6 4791 20 736 16 2665 23 780 28 2698 35 3660 37 2987 33 2289 36 5175 3 4600 17 2537 13 1751 18 2912 14 2452 27 859 26 3162 59 3035 32 1599
23088 4.4412708641053671 2.6550828375342452 9.10443173306696 83 87 80 0.49385941205014167 8 7110 12 3636 9 7375 28 4644 10 5859 26 5229 27 5423
23089 5.7726711670311444 0.27306785308533599 8.8582709859628661 93 92 81 0.99771295401700744 4 8069 8 7854 11 5121 12 5144 16 6561 17 5287 19 6280 28 6531 34 6500 58 5011 26 6262 38 8340 37 6789 29 6522 31 4788 32 4060
23092 7.6542809908298342 1.2485402622617754 7.5984356348030762 53 58 64 0.95377020955370584 58 4370 26 3083 28 4460 20 2965 44 6464
23093 -1.7951347470362857 -1.6035496367148241 7.7570297382684092 31 28 30 0.50289439314451778 60 7570 44 5120 12 5019 14 5991 28 5509 2 7664 3 7837 1 8586 41 4736 33 5304 17 5151 21 6357 23 6307 25 6291 26 6103
23094 -1.9835214384953048 -1.1016686980633195 7.9697468567560756 227 233 178 0.3323115153704429 13 4955 14 6051 15 6634 16 6521 17 6249 18 6771 19 7174 20 7098 22 7196 23 7309 24 7135 25 7281 26 7122 27 7208 28 6491 60 7590 58 4904 57 4951 42 5835 44 5160 46 6022 45 5353 48 6283 47 6248 50 6039 52 6121 51 6552 49 6519 53 6511 54 6013 55 5433 56 4197 40 5892 39 6821 41 4767 38 7703 36 7368 37 6644 35 7793 33 5347 3 7896 1 8629 4 7417 5 8559 7 8370 9 8619 29 6461 30 5490 31 4673
23095 5.6718215466731872 0.67339067291349974 9.0998979411313758 40 35 32 0.65033379230050536 26 4968 60 7710 45 6453 57 5066 41 4913 39 6940 40 6599 33 5495 34 6541 2 7821 3 8010 1 8734 4 7562 5 8695 7 8526 8 7870 9 8152 10 6616 11 4262 12 5186 13 4164 16 4332 17 5335 19 4995 20 4907 25 6452 28 5705 31 4058 32 3440
23096 -2.2033762737026827 4.4311299116261429 6.9374174513075921 57 63 70 1.4920379118377989 20 7589 24 6946 13 6010 17 7206 25 8125 27 7669 28 7031 31 5736
23097 4.6357002954029767 4.4150843847571632 8.1707514222066084 164 167 166 1.0980518747682886 27 3905 60 8493 67 6658 51 6347 41 6023 51 7364 50 6888 52 6936 48 7135 49 7361 45 6227 53 7277 54 5842 55 6173 56 5563 40 7231 38 8181 39 7781 36 7878 37 7667 35 8704 34 7389 59 7722 33 6223 33 6643 2 8051 3 8697 1 8962 4 8278 5 8870 7 9184 6 7570 9 8356 10 6866 12 5880 11 6270 13 5297 14 5585 15 6882 16 6776 18 6253 20 6601 21 5634 22 5515 23 6805 26 6600 28 6041 32 5077 66 5250 68 5244 70 5366 69 5320 65 5502 64 5450 62 10057 61 10063
23098 -1.1708030163862799 -0.96734285516489404 8.1636527704327957 216 209 211 0.16713736995355072 15 5681 17 5270 18 5881 20 6223 21 6448 22 6318 23 6397 19 6264 28 5609 16 5588 24 6201 26 6193 27 6323 29 5595
23099 -1.913177537374821 -0.34250608427478074 8.3554335515116307 44 40 40 1.4090654496218558 12 5711 13 5636 15 7264 19 7798 17 7339 25 8245 28 6553 24 8090 41 5772 26 8066
23100 -5.1262497862740384 -0.43996449486426403 10.77375823771132 211 214 222 1.7811382486343339 12 5174 13 5650 28 6571 14 5257 18 5995 22 6437 19 6377 23 7385 15 5835 26 6312 27 5176 25 5243 29 5700 30 6203 31 4030
23101 0.92573687863533949 5.1081409128975226 6.8763912436383308 6 9 7 1.9768529285534371 24 6923 26 6881 28 6293 22 7001 14 6596 16 7083 18 6551 19 6963 21 7107 23 7099 24 7590 25 7719
23102 -2.7075893327677552 1.0496903188970947 4.9933386729413138 33 37 38 2.8521123288486718 26 1140 28 963
23103 0.7801608401558433 4.3648254514289571 7.3495216324538681 46 51 47 0.15497986995616581 24 1715 28 1453
23104 -3.95258703527622 -0.300181180871047 0.27776626420824624 0 0 0 1.2743159030152347 24 3394 26 3292
23106 -2.8229986173330315 1.717008283459041 3.3098415185250185 82 86 87 2.5272062045586514 27 5878 28 5116
23107 0.51032670597790342 3.6889047185732085 7.6813006712293461 124 133 128 0.8566373398197713 12 5396 28 6054
23109 -1.3622708448274674 4.1379338201398275 7.5395115950320291 7 11 10 0.47588911534628309 24 7934 28 7312 29 7264 25 8068
23110 -1.701696518418371 4.0782986477759993 6.9257778953426321 26 32 32 0.012810716185069772 26 7935 28 7337
23111 -1.1028015548538828 4.2804785922673565 6.9017459726046404 13 17 16 0.1003506230168357 24 7962 28 7343
23113 0.709853242366693 -2.6185575043202154 8.3989551143320202 88 90 77 0.39699729268572315 27 10 29 7
23115 -3.3132458420328024 -2.4177953301995969 7.2627220415809557 66 82 130 0.31111102470234075 28 21 29 22
23116 -2.8702399437634538 -2.3874271543687224 7.1804369597931368 0 0 0 0.60746615296332584 13 51 25 27
23117 -2.6520336204363479 -2.1681617590332047 6.5052360301570245 55 92 145 0.47961786117466437 37 1957 29 32
23118 -5.3184744636720236 -2.0971159788100109 7.0687184118411164 51 52 38 2.0490045657332203 28 2089 30 1546
23119 -2.456462399122548 -1.8026982895563646 7.590620018756522 34 38 36 0.23538582052074877 25 80 29 104 26 96
23120 -2.456462399122548 -1.8026982895563646 7.590620018756522 34 38 36 0.23538582052074877 25 79 29 105 26 95
23121 -1.9707340212270268 -1.650293888459121 7.7362900231170935 73 65 63 0.24999060855160024 28 100 29 111 30 64
23122 -1.7404557139165022 -1.2785447440726674 7.9616575947599486 30 25 22 0.38545605552021767 25 245 27 220 29 243 24 262 26 229
23123 -1.7190167341539386 -1.2423851593038762 7.969782791534791 48 43 40 0.28873192415513654 28 173 29 246 30 177 22 296
23124 -1.2072214093968263 -0.92827142905312676 8.199887210430532 54 48 50 0.14115370777360398 21 434 25 439 27 387 29 411
23125 5.2494057687986091 -0.29196343929501573 9.1534099303610361 55 122 207 0.27366027079775224 28 311 33 335 29 444
23127 -6.6098646255444207 -1.6216522594481166 16.2528545496167 105 100 96 1.973135754886991 21 3208 29 492 19 3063 22 3045
23128 -1.6122732970250435 -0.47217697207576809 8.360202731790789 195 189 193 0.039553190029647384 21 603 29 525 30 378
23129 -5.9225516816305355 -0.81574674435420536 10.287676860936479 183 178 172 1.0663442221308714 33 1981 32 1311
23131 -1.9408237108802808 -0.39033905680914049 8.3472970279560652 117 109 106 0.17045991532264629 25 716 29 633 24 3084
23132 -1.9408237108802808 -0.39033905680914049 8.3472970279560652 117 109 106 0.17045991532264629 25 717 29 634 24 3083
23133 5.545543961539396 0.68827920127268138 9.0652134159782882 130 126 125 0.3853605508355224 21 637 25 754 29 678
23134 5.7243381423112476 0.55005088488533138 8.6386071491265461 124 121 122 0.31907391654894618 21 3144 29 686 22 2982 23 3096
23135 5.5494597844914164 1.4068881151991377 9.7055298094779729 77 108 149 0.23870977394391024 21 889 29 882 22 878
23136 6.6657530663571647 1.6803782916187657 8.5864970909453735 126 125 131 0.27047367088149354 21 911 45 3067 29 958 17 803
23137 6.8563619779050873 1.771494355605469 8.6988727805068873 125 124 130 0.32764712449516931 25 1009 27 971 29 961
23138 -3.734095149472755 0.42071577768058971 5.4824216141212077 145 143 129 0.043753760097698983 27 3463 29 984
23139 -3.1582554052659608 1.5988687530577228 9.9125664810579828 69 70 75 0.63094886298755415 25 3651 29 1092
23140 -2.0475846635676591 1.6452400703724401 7.2096887486032113 30 34 37 2.0880422852414613 25 1282 29 1144
23141 -7.1505188318664654 2.2349893579777356 10.033150884442728 157 156 150 0.14734511724234228 27 3844 29 1219
23142 -3.1353129208441861 2.9100683401872258 9.72815128154358 199 132 105 0.26190155554468092 21 1425 29 1262 31 858
23143 -1.4416126227979174 3.0986714664338644 9.4841823171773463 167 132 222 0.18096015103682361 27 3801 29 1288 25 5579
23145 -6.4639096367984559 2.7249160653278599 8.486665363998668 254 249 225 1.1134560138302541 27 1664 29 1421 23 1811 26 1564 25 1856 21 1867
23146 3.1828402327432701 4.2668411711562406 7.5101338572927752 65 69 68 0.34199077262025318 25 1554 29 1492 24 1484
23147 -3.3824017987268467 3.7807262266021797 8.3363961586289008 79 82 87 0.30900709243310648 27 4154 28 3470 29 1539
23148 -6.5321084000380596 3.2086735621058291 7.7972583439258791 56 43 35 1.2296646753816571 28 1492 29 1634 30 1213
23149 -4.5549450983941746 4.0595669521484732 7.5458252122446332 120 113 156 0.42070054007013874 25 4536 28 3789 29 1881 27 4508
23150 -3.8812703880052042 4.0682996045023758 7.3776690013115145 195 125 110 0.3318107567458447 27 2211 29 1886 23 2280 24 2153
23151 -0.24342420581498805 -2.508223952906985 7.6735551855092874 148 150 136 0.1007898831862664 27 2500 29 2094
23153 -2.543145955229078 -2.3365601725331326 7.2760761200807238 0 0 0 0.1207177446817928 28 4078 45 7
23154 -1.8325794602216972 -1.9033553136587034 7.6116347469144339 100 119 161 1.3300493865284986 33 1520 29 2149 31 26
23155 -1.6169661762969838 -1.9645358914505187 7.6616473727812755 38 42 26 0.18573467078777697 27 38 29 2155 25 37 24 2514
23157 -1.6409452663699375 -1.7406617628166441 7.7274204956410939 207 207 209 0.061630147959403241 21 2728 29 2206 30 1622
23158 -1.5915482107524734 -1.5738628525275566 7.8298120343849131 213 208 206 0.11468809037868677 28 113 29 2237 27 137
23159 7.3982659310597052 -1.0206629918715775 10.43678763681897 149 150 136 1.9881985330131735 21 2757 29 2292 30 1709 28 2199
23160 -1.9154341774835226 -1.1879731117034487 7.9636631660763442 57 50 61 0.1968791893651114 25 2854 29 2314 24 2702 22 2690 30 1742
23161 -1.5008746246045006 -1.2359260775544814 8.0471961962398044 198 193 197 0.39273231310915524 28 2243 29 2333 30 1750 31 1340
23162 5.5968621259554165 -0.60767337830831647 8.8079521781431183 77 89 105 0.7309433345519305 25 2818 28 2291 29 2388 17 3848 21 2828
23165 -3.7496733214844089 -1.1378944929501198 7.9655234386226486 156 151 147 0.92898430782575092 25 399 29 2431 23 5038 24 384 26 2732 27 354
23167 -1.7185954073294842 -0.8098136922462289 8.1553959732330359 204 198 198 0.20380132628620795 28 2350 29 2451 30 1850 22 2827
23170 5.6303763712351218 -0.018034537937028076 8.8803524797890709 129 132 137 0.18351922748552738 13 2806 29 2502 31 1581 35 3337
23171 -5.4008699323216636 -1.1153794898224756 9.9946023275028253 94 95 99 0.62546308435789633 28 2442 29 2542 27 646 30 1915
23173 -1.7331709617964197 -0.55870402337184877 8.3056743696065798 184 178 182 0.15341036742878297 25 3053 29 2572 30 1941
23174 -1.5762496287989489 -0.46882690086088796 8.3103736036605724 176 167 170 0.34210036873430771 21 3119 29 2579 22 601 30 1952
23175 -1.1725138758256186 -0.66150786896832769 8.3099174979801358 217 212 216 0.32224890249125893 27 534 37 2448 29 2582 25 581
23176 -1.0431482055205117 -0.58260292970682004 8.3357175058695958 157 148 149 0.28101672687071855 25 3059 29 2587 26 2874 24 2954
23177 6.0431960872013635 0.17377154331603883 8.6181651873561691 97 98 101 0.43593185086524039 21 488 28 2501 29 2618 30 1970 32 1360 34 2406
23178 -5.0530046989838677 -0.86897335367872819 10.432690795643827 70 66 67 0.4628331237456586 33 3271 29 2656 32 2362
23180 -3.5468403832496689 -0.44827693529777246 8.021163774264318 82 29 0 0.43696275613497942 27 3065 29 2672 30 2006 14 2299
23181 -2.1049584671206727 -0.20290760312700482 8.4136032764315853 52 48 39 0.47972195931312323 25 3289 28 629 29 2690
23182 -1.6908981430876682 -0.21567268887805752 8.446609114812258 169 160 161 0.47508082073288821 13 2985 21 3277 29 2694
23183 -1.6439678573330778 -0.18678265376420242 8.4645231798851466 27 18 19 0.38686650430660535 27 694 33 2015 29 2696
23184 6.2362813428333945 0.52021358322126043 8.5325749016869281 100 101 103 0.086882327442236881 21 496 29 2718 19 502
23185 7.1700722304121154 0.77589157935900543 7.8626410283159185 22 23 25 0.20548901112013659 21 527 28 2638 29 2731
23186 -2.6683522320568502 -0.11249896008762947 8.3710212637576369 118 112 114 0.36183873826227314 21 3384 29 2749 30 3602
23187 5.0715917841208427 0.97593296167434751 9.5490345882367293 0 33 104 0.37054681650974652 25 3206 27 853 29 2778
23188 5.0715917841208427 0.97593296167434751 9.5490345882367293 0 33 104 0.37054681650974652 25 3207 27 854 29 2779
23190 5.7726756021417778 1.4385320370790513 9.2872614840958221 122 140 121 0.30615163033665693 33 3687 29 2840 31 1931
23192 6.851751582031679 1.730735960190017 8.6925510224006715 23 22 28 0.66208675228080871 25 916 27 967 29 2902
23193 -4.303647947700374 0.06320511580143523 3.9175245108255261 162 153 154 3.494443513088755 27 3457 29 2916
23194 3.6285280765770462 2.094329646525964 11.729273140239135 130 115 46 0.98467863128274913 27 3468 29 2940 26 3273 28 4572
23195 5.6403607697800666 2.4161337030404169 12.09601702970579 137 74 56 0.33942412064971222 25 1073 27 5308 28 4578 29 2944
23196 -4.5040433073568726 1.4472499856163221 12.129574919400413 64 59 65 0.96554946078237525 21 3656 25 3561 29 2993 23 3587 19 3452 20 3359 22 3464
23197 -4.5031687241093659 1.4537452659522216 12.175256738618355 64 59 65 1.436896430202439 21 3657 25 3562 29 2994 23 3588 26 3393 19 3453 20 3360 22 3465 26 3394 27 3528
23198 0.33075102294902747 2.1557302963205047 11.118915428016244 86 89 80 0.50988979336558071 28 4613 29 3001 30 803 31 771
23199 0.80778760378920922 2.0976635606399547 10.988350968067019 93 95 85 0.73899272370967706 13 3285 28 2931 29 3006
23200 -0.57182920927755732 2.7284937362775499 10.45227420469017 99 105 103 1.657081883626103 28 3048 29 3134 31 2154 15 3150
23201 -6.5432754490762592 2.0623740294809578 10.269206418694507 141 90 75 0.14742113506292445 21 3878 29 3165
23202 -7.3762647950468345 2.329377160722454 10.286111028785601 37 37 29 0.80917918128875832 21 5670 29 3216 19 3798 23 5601 25 3880
23203 -3.0461276537314239 2.7445460173908294 9.571023187359966 189 128 97 0.99440703017688603 28 4808 29 3238 30 3924
23204 -3.0461276537314239 2.7445460173908294 9.571023187359966 189 128 97 0.99440703017688603 28 4809 29 3239 30 3925
23206 -1.8284082740978327 3.1370936650916748 9.4811248976385194 92 71 132 0.23693238312918077 25 3814 29 3247 30 2646 31 2229
23208 3.3453197038053508 3.6552896239257588 9.2409829469102807 90 90 97 0.75997005135113971 25 3704 27 3758 28 3106 29 3281
23209 -0.15830484227727665 3.5241948452311909 8.9119736063042136 158 175 203 0.63413171763491172 28 3219 29 3322 26 3706 27 3886 18 5156
23210 0.41248551211692636 3.6187680736547678 9.1358463801533478 56 66 75 0.36327103385642018 28 1173 29 3325 30 1042
23211 3.5640150916918367 4.2533390917309841 7.9074291934987739 37 42 38 0.31434905833772897 21 1487 27 3903 29 3378 26 3720
23212 -5.8418234227735404 2.4420113704530482 7.4004653042839683 171 170 166 0.89210022238158093 25 1865 27 4021 29 3401
23213 -4.4403586746242238 3.428627562653531 8.6750667853031 26 31 37 0.52801053949354404 28 3341 29 3417 30 1117
23214 -3.1032370114647225 3.548034142754545 8.6085528329689485 138 142 142 0.18587889256440318 28 1279 29 3421 27 4028
23216 -2.5496696714630547 3.5079129667819031 8.436839271740034 20 33 74 0.53284685373769769 25 4091 28 1285 29 3426
23217 4.5798387654249648 6.2338059825380281 11.779055211944536 24 30 28 2.8127629498427265 25 1704 29 3449
23218 6.0758531294822857 4.8393627787461799 7.5883168320905643 71 72 56 1.3725185067998589 25 3962 29 3472 23 3908 21 5652 22 5533 20 3653 26 3748 17 4564 15 3414 18 1343 19 3771 30 4129 14 3040
23219 -6.6654042891968475 2.6815082739855858 7.3621951020937768 90 69 64 0.30182875040091944 28 5015 29 3486 30 4064
23220 -5.4811124968090992 2.9774293915127199 7.5114974185117012 149 91 49 1.2355573253255812 21 5963 29 3508 22 5806 23 7011 26 5687 27 5795
23221 -2.0784164714722939 3.89379090523625 8.2167499106642214 139 156 244 0.1990285668604467 28 5046 29 3528 30 4096
23222 -2.0775059986132676 3.7236337190619468 7.6207328915142165 99 106 114 0.21259587442749608 25 4207 29 3531 26 4000
23223 -1.1236892014039008 4.921669765668657 9.85836602990668 84 82 93 1.2875727038245497 27 4166 30 2846
23225 1.9129529631114499 4.2841509551213486 7.2593345953414401 6 26 50 0.63153632379482649 25 5811 28 4993 29 3585 24 3931 17 5842 18 5298
23226 6.3331518923569066 5.0038076755636398 7.0985514827146767 70 52 38 0.71857639782242444 25 1599 29 3605 21 1642 23 1585 27 1638 22 3888
23228 5.9473557994875286 5.2400442331994741 7.1797239335645662 95 38 19 0.77101826558520603 21 1641 29 3708 30 3048 62 7786
23229 -4.0656641178915516 3.9412086029853262 7.701376409255694 255 233 245 0.24979327500809417 21 4504 37 3726 29 3749 69 2035 67 2090 70 2153 62 5746
23232 0.39366048241283086 4.4036868529974349 6.9331326520770125 111 117 113 0.22028840553883666 28 5139 29 3782 26 4165 18 3865
23233 -4.9346455840308341 3.4446146788708858 6.6521966393365819 116 6 75 0.62283272827431069 25 4625 29 3835
23234 -3.803789754799078 4.2872759075273272 7.3708772981005888 124 109 183 1.2588656356435581 27 6022 28 6270 30 5325 25 6106
23235 -8.735587218769199 5.170070515486322 10.359359376451554 0 1 0 0.23582024602292684 25 2511 29 3895 23 2496 22 2359
23236 -5.0806863817007315 4.103700485445354 6.77722908579719 107 57 46 0.27459835717770509 25 4779 29 3980 24 4640
23237 -5.0291990355338942 4.2041017385597437 6.9980968711025824 176 126 112 0.62177718345674204 27 4685 29 3985 26 4499
23238 -2.0676274438562787 4.7016337163447925 6.5326418572459408 95 104 99 0.55490560561563862 21 4704 29 4002 23 4663
23240 -2.4677945830872621 -1.8835855558771202 7.3721517049511256 73 131 203 0.69845080740998622 21 4913 27 4851 29 4095
23241 0.79651521204039644 -1.902215924069818 7.9362720571651337 0 0 0 0.099176487151637557 13 3844 28 4087
23242 5.5850869529021887 -0.53368422212224631 8.9723722269504709 1 20 41 0.27167805591872857 21 2831 28 2294 29 4195
23243 6.5937061327169131 -0.22942665127960837 8.0613882649220496 209 201 179 0.45126050345427887 13 2728 33 4461 29 4210
23244 -5.3705909213478424 -0.935663374427539 10.59635318493612 47 56 75 1.2793635283307894 27 5116 28 4350 29 4351 23 5151
23245 -1.8203421750446349 -0.47085131726769203 8.3115421015097084 207 201 201 0.2094360144797088 27 3085 29 4368 30 3528 14 3862
23246 -1.8467432432487825 -0.22514728259463548 8.3890282695610008 188 182 182 0.23826726595414618 13 2978 25 3190 29 4374 30 3534 28 2579
23248 6.0232702312135675 0.74066320302603372 8.9493397321262069 27 23 24 0.35640876485514789 25 3088 27 3126 29 4395 23 3099
23250 -6.5160902982578293 -0.6839349218624291 10.727341897507614 133 130 123 2.6567409340612267 28 4408 29 4407 27 5172
23252 6.383057763594028 0.95411349043737947 8.9263817443754174 19 18 24 0.21075814938632967 25 3222 27 3147 29 4449
23253 4.0211588353098717 1.2370951511409201 9.8755755443116051 55 35 28 0.44208626732474704 27 7275 29 4482
23254 -2.0633184500047004 0.69408803805326735 8.8319918788007836 26 25 33 0.50846133376326264 21 5348 25 5306 29 4521
23255 4.2857277312626003 1.6178182530947567 10.560664923669412 51 47 46 0.41260149911581534 21 3453 28 2814 29 4526
23256 4.6541034986471761 1.5385663100048694 9.9118601994830247 238 240 227 0.78831048877979948 37 4672 29 4532 38 5739 61 6874 69 1234
23257 -4.6074203372407005 1.1726514083084205 11.642937407501703 24 22 21 0.57352452640195217 25 5412 27 5387 29 4553 23 5388 24 5221 22 5305 18 4895
23258 -4.6074203372407005 1.1726514083084183 11.642937407501687 24 22 21 0.57352452640197027 25 5413 29 4554 23 5389 24 5222 27 5386 22 5306 18 4894
23259 3.4058205979249156 2.1017232638518357 11.837924272920704 59 29 3 0.40329049081240109 21 3540 29 4569 30 3717
23260 3.6660282212599746 1.9393114819133614 11.496943362048427 94 75 19 0.85741983857568804 25 5310 29 4571 30 3719 31 4132
23261 4.2778116789126903 2.101325510317178 9.5784689360295339 80 85 77 0.24756305881615387 33 3799 29 4578 31 3210 15 4674
23262 5.1601110762723348 1.9101890916123982 9.1542429281007411 93 96 88 0.19285535008121335 21 3476 25 5333 29 4585
23263 7.2334476077778973 2.39466921023913 8.3428647753470262 0 10 14 1.4775362407404371 33 4882 29 4602 32 3592
23264 7.4942253068934841 2.4754809100795034 8.2431931904742672 0 27 79 0.18624463713469405 21 5340 25 3485 29 4603
23265 -4.6123859257272288 1.899865650654206 11.948773974767962 170 164 166 0.59770736944930458 28 5878 29 4651 30 4890
23267 2.932774384276247 2.6284683584088375 10.330267217021003 133 0 2 0.34151465634480704 13 3323 27 3560 29 4668
23268 4.0185766859308467 2.6174077879332636 9.3189685858459583 33 39 27 0.67963487429966873 37 6087 29 4672 69 3604 68 5016 64 5178 63 5034
23269 -2.1678803165171012 2.3616180800043916 10.546267990523006 131 135 136 1.6581601080749047 21 5516 27 5481 29 4710 31 4250
23270 -1.7091042512143451 2.6156369728566422 10.251234629780543 137 78 44 0.36943163034809218 25 3694 27 3679 29 4713
23271 -1.6281810990016174 2.6485968271345528 10.350460907589415 157 159 157 0.70461008977334227 25 5505 29 4714 27 1257
23272 6.1261584565741671 3.4657202471638766 8.2592682922107397 58 68 57 0.67035334324347051 25 5484 28 4743 29 4728 23 5439 24 5297
23273 -4.7668412084531182 2.3148135014644695 10.490076084245965 184 125 119 0.92366603062198349 25 5523 29 4731 21 5535 23 6749
23275 3.4075724051537097 3.4606810865141959 8.7775967496589011 233 235 221 0.73194743159890174 25 5514 29 4761 31 5003
23276 5.569172278293566 3.3911951710757786 8.0376255610938916 27 35 20 1.3136239883590486 25 5482 28 4741 29 4762 30 4979
23277 -7.4360437802502917 2.1868871948751845 10.483226226807881 94 91 82 0.80477296261353126 28 4787 29 4770 30 3849
23279 -4.4548389166150804 2.6206337877576646 9.7814537773201522 237 191 164 0.25882809932741868 25 5560 28 4795 29 4781
23281 -1.4545171607182179 3.3517001359411687 9.1647265933596191 147 157 165 0.92543011620172677 25 5644 27 3875 29 4832
23282 -0.76090342830684687 3.2795789136478164 9.1517491994759368 136 145 163 1.4214981085208389 25 3830 29 4838 27 3811 31 3423 61 5347
23283 0.85762611432211444 3.6299886072716854 8.8263677900061861 1 16 50 0.92257200338656398 21 6824 25 3847 27 3819 29 4844 22 5508 18 6250 26 5409 17 5671
23284 -5.0723972498512966 3.064383983333816 9.3728516115297769 233 139 96 1.1417916562455435 21 4087 29 4855 30 3999
23285 3.4451511669636661 4.1718405250151482 7.8323022178788273 29 34 30 0.64591342059274914 21 3945 25 3938 29 4888 26 3719 27 3902 28 1232
23286 4.2932053735567131 4.2138253697121506 7.5511341055710739 8 13 7 1.8586690114456119 21 5636 29 4892 22 5517 30 5074
23287 -6.4655726636657187 2.6414090243535218 8.1263823382413349 182 157 144 1.8774345605959806 27 5713 29 4900 26 3958 23 4189 18 5305
23288 5.1951872371953467 4.8795597429382518 7.9841173178690035 39 41 30 1.5042392347156686 21 3955 29 4957 19 3856 23 3993 24 3839 26 3730 25 3951
23289 -1.547233756123688 3.8696901833548916 7.9977821554941197 132 148 171 0.2189050410550836 27 6770 28 5049 29 5008
23290 1.3458940793740986 4.1891480737885241 7.6046278007573802 5 12 5 0.7790292447765701 21 5778 29 5024 20 5547 22 5651 24 5555 26 5594 23 5720
23291 1.2633677729714501 4.152675302742602 7.4429097933412596 11 13 10 0.666389525961262 27 5750 29 5026 23 5722 26 3921
23292 1.669259400489022 4.2918982691593772 7.5363788165031247 131 138 131 0.14270171009336324 27 5755 29 5034 23 5726
23293 1.8997271310261767 4.3687447434985032 7.4365440207612883 126 132 128 0.20989048721882669 21 4153 25 4137 29 5036 27 4082
23294 -5.746932362296195 3.2877385168733713 7.628874110240865 174 125 108 0.85607701359121935 28 5102 29 5060 27 4368
23295 2.8384560812270276 4.9284785326664737 7.2935209644373549 67 74 126 1.6424397125357353 27 5837 29 5120 28 5156 30 5237
23297 1.6906499221710247 4.6952789325283941 6.9310411254729809 96 102 98 0.59440365489660929 25 5867 29 5194 23 5873 27 6911 22 6884
23298 -5.1199192117153824 3.5584499332819326 6.9323539959445268 248 37 202 0.94479711085833218 27 6014 29 5216 23 4628 26 5846
23299 -2.5160743269381012 4.5454171291182837 7.0343659160729946 114 99 213 0.31128242831974445 25 6109 29 5312 26 5928
23300 -2.2503071416324514 4.4829233710418279 6.8521527342436279 73 72 134 1.3620907849273356 25 6113 29 5314 24 5932 26 5935
23302 -8.7724031091264454 5.3809628811939563 10.098523339142286 118 124 120 1.01305409832697 27 6171 29 5336 19 6069 23 7246 28 5364 22 7140 25 7199 21 6290
23303 -2.4519133668151185 4.5677207330228864 6.8092170215863499 175 118 231 0.37388632039747005 27 7043 29 5359 23 7178
23304 -1.907162212560169 4.6605954210458593 6.4931337599143344 103 112 109 0.42851716540709861 21 6182 27 6153 29 5364 23 6146
23305 -0.48698330201128509 4.8076586570300632 6.4304455867336365 58 64 60 0.40271412677081875 21 6128 29 5370
23307 -2.9736636791560347 -2.3619897990038679 7.2498219754398088 9 61 126 0.33126749835720859 25 6249 29 5429
23308 -2.9798329758403188 -2.3515296737501252 7.2115903202201066 9 61 126 0.28453395410854215 25 6250 45 3840 29 5430
23309 -0.99993202358523881 -1.9172089046826553 7.6782935015140898 73 74 68 0.49923549500715164 13 3866 27 4827 29 5438 23 2618 26 4647
23310 1.0263699918094731 -1.9585724095179911 8.0685589454083235 96 95 91 0.73444483435282626 13 3848 25 4848 29 5440
23311 1.743507165995259 -1.4650405079210165 8.3667609419201003 95 95 83 0.83725767358829506 27 6238 29 5457 30 4533 14 4974
23312 -1.7140391114024687 -1.5855611154693676 7.8569104876185119 126 121 118 0.087839531277516744 25 6293 27 6253 28 5510 29 5477
23313 -1.1141170187967646 -1.1938560893946888 8.0321148330428453 64 58 60 0.19542166224892146 25 6341 29 5533 23 6349 24 6152 26 6150
23314 2.1140583779488753 -0.8610548174209024 8.9493406799308683 109 104 100 0.37884354061626202 13 2696 27 6291 29 5544 30 4619
23316 -6.7029178508962914 -1.3208377983725961 10.237304363649841 80 79 75 0.42795791429961216 25 5116 29 5618 23 5138 22 5034
23318 -2.0388666243800637 -0.48327695693353323 8.2326933534462725 129 121 118 0.38706198618536197 28 5690 29 5671 30 4730
23319 -2.0352901982949478 -0.39093578066324031 8.3153583035497025 140 132 129 0.28528267103055044 33 5438 29 5672 30 4731 31 3993
23320 -5.3584093009256257 -0.59634070480093271 10.327051187926475 0 0 0 2.0139748650057561 21 7991 28 6568 20 7761 23 7383 25 7349
23322 -3.0605202036283878 -0.17664575529875268 8.0388393433007028 62 33 23 0.31300472016427083 27 5186 29 5709 23 5226
23323 -4.4939682812316688 -0.086186404763883076 10.939070409647544 94 91 89 1.1253145473008679 25 7378 28 2739 29 5735 27 3307 23 7404 24 7224
23325 -2.1301655781289095 0.74848040224350765 8.830035582491222 118 117 124 0.064941060744419368 28 5800 29 5769 30 4811
23326 3.6919195023059816 1.9097062934937314 11.643029152000569 24 19 16 1.3861598394697776 25 6573 29 5770 23 5323 24 6383 30 4827
23327 -4.4329864215811368 0.93913664149339815 11.811565113250781 0 0 0 1.413217185481648 25 7419 23 7441 24 7262 27 7856 20 6435 19 5237 21 7474 22 7838 26 6430
23328 -0.44791621028933865 1.9014484255576396 10.992688476127793 23 27 28 1.3132593902109468 25 6636 29 5821 23 5392 24 5227 19 5301
23329 1.1901980448073537 2.2925330647513782 11.168786937008342 65 45 36 0.42450209111734882 21 6676 25 6639 27 6536 29 5827 30 4859
23331 -2.6203819697514521 2.0282385924290409 10.792625985269833 23 13 6 1.9945513666783219 13 4369 21 6704 29 5861
23332 1.4116827368378815 2.6200583520788068 10.029708886565608 65 36 36 0.55637194926902256 21 6713 29 5871 19 6562 18 6159
23333 -6.7459164468850652 2.1752976811033089 12.54355653309443 60 49 51 0.51721494390610334 27 6623 29 5890
23335 -4.5505173566943045 2.6748459923135544 9.6808785912727 250 194 159 0.70608060222010771 28 4794 29 5957 27 5551
23336 -0.036704466323994697 3.6284545104150521 9.2991140170399991 158 188 222 0.47792670751097949 28 7222 29 6009 26 7837
23337 5.2613884574759009 4.6797202125032067 8.0207278160797753 158 151 143 1.065235476083958 21 7579 28 4930 29 6041 25 5682
23338 3.1824846448724271 4.0557251145130335 7.0631844565111574 85 87 84 1.6765686109848164 28 6769 30 5842
23339 4.937195853145357 4.6920764748183776 7.7112853419032659 204 206 193 0.9512571933192554 21 5645 25 5689 28 4937 29 6072 23 3994
23340 5.8083112495766596 5.2202082603125506 8.1227686177785632 192 184 173 1.6294073010635255 27 5697 29 6074 23 5673 26 6691 22 5601 24 5495 20 5498 23 5670
23341 -4.256079582689738 3.3211095819938148 8.0416680843905226 32 36 37 1.100079734277785 21 8118 27 7491 29 6092
23342 -0.37431470474637657 3.9084853469177521 7.6173362613837741 157 162 156 0.095721804722157522 27 5733 29 6102
23343 1.442989625881516 4.3056544867966222 7.528721838182638 113 115 112 0.30212193524717956 13 4655 29 6116 30 5171 22 5659 20 5554 23 5723 24 5608 18 5283
23344 5.1725345382576391 4.9024079827282598 7.4329803922172788 180 172 157 0.10788814418569054 37 7318 29 6128 36 8009
23345 -6.4867020245498237 3.2559608827556241 7.6830302461938764 89 69 63 2.2147396191089239 28 6205 29 6137 30 5851
23346 1.0129659579757961 7.3820317257025438 13.469786199980931 110 115 111 1.8548616998391636 27 7494 29 6157
23349 -4.4745654518771421 3.6723335275690743 7.346130975949464 123 100 105 1.9398377439535546 21 7079 29 6195 20 6875
23350 -4.1723735258377221 3.8553466621117694 7.698269990091033 146 101 117 0.77143787600233327 25 7031 27 6931 29 6198 23 7065
23352 -2.0203311862171986 2.8083528346770037 4.9829348385225254 94 103 98 2.3350183083389111 27 6879 29 6214
23353 -5.8974882088617111 3.5168625618671965 7.265825985842695 187 145 129 0.64613963268396646 21 7192 29 6246 23 7167 19 7683
23354 -2.756744124849928 4.4563320923713325 7.2758999807932518 102 105 217 0.39431230966116515 27 7001 29 6256 26 5863 25 4551 30 5327
23355 -2.1718315956699148 4.2850587349087457 7.0673084497438987 65 69 72 1.5806246975452865 13 4817 29 6260 30 4309
23356 -2.3859118636234102 2.4760153802573175 4.1389768220064171 110 115 111 1.9848664648256915 28 5187 29 6263
23357 2.5128960607739144 8.6130399420725023 12.251350747611529 1 4 1 2.3689224783365694 27 7682 29 6269
23359 -4.8569652814746958 4.1841846627936414 7.1721891990712061 233 172 172 2.0197353018004072 25 7166 29 6309 30 6035
23360 -4.2895262972977033 4.2905705465907005 7.265767492957413 146 103 166 1.7273542168565674 28 3899 29 6313 30 4364 14 5906
23361 -0.32827270982736978 4.4388543313709903 6.1591824870938918 69 74 68 0.12566887963297685 28 6288 29 6325
23362 0.27215095349942409 4.7892715719382943 6.670764424925455 92 99 91 0.38040422489894965 25 7062 29 6328 23 7094 19 6959 21 7807 30 4387
23364 -8.6504767331757364 5.6825233205493113 10.15140435314132 65 76 97 0.90769606861882135 27 7108 28 6380 29 6340 26 6042
23365 -5.0539374646844273 4.14761495795429 6.8753954449871966 164 107 114 0.47870851492829336 25 7190 27 6133 28 5381 29 6350 30 5367
23366 -5.0611108129332587 4.2368254189342016 6.8838688715401073 123 73 62 0.54255535402238697 27 7088 28 5382 29 6353
23367 -2.59860418865577 4.7329771111488617 6.75106044281676 199 89 204 0.88911450115956836 25 7824 28 7063 29 6358 30 6116
23368 -3.2218843696014239 -2.37057036703469 7.2349021493382137 8 66 132 0.37758990739832754 21 6319 27 6220 28 5471 29 6412
23369 -3.2198846781875665 -2.374417739110553 7.2222766074869345 8 66 132 0.68377583246655971 21 6320 29 6413 19 4707 20 4622 23 4829
23370 -1.9333269914148945 -1.8229153387224717 7.6480280286252338 74 65 68 1.639850341758331 33 5283 29 6424 31 4623
23371 -4.9780872374215672 -3.2042126487308571 15.152018388436771 23 23 23 2.3562846439173226 21 7295 29 6437
23372 -1.1246123607430529 -1.5403326264334662 7.9033452227534706 194 207 127 0.57392569393274995 13 4910 29 6445 31 4644
23374 -6.5412563636371024 -1.7536280109184927 15.479072108401665 105 100 96 2.5758816502245008 21 7395 29 6505 20 6302
23377 -6.1141902895297484 -1.7692827477260067 16.885564327918239 17 14 14 2.6668120642893434 28 5640 30 5567
23378 -2.5744120654518139 -0.56528602340641643 8.2163757757941109 51 45 47 0.68175206452381887 25 7343 27 7254 28 6552 29 6509
23379 5.7516543840249508 0.2714977505552717 8.8270742135815397 77 77 67 0.94725494141221067 28 6532 37 6788 29 6521 38 8339 34 6499 31 4787 32 4059
23381 -5.1922417791945685 -0.40462786080351409 10.79554375634476 50 66 90 0.78172440175940716 28 6572 29 6547 32 4074
23383 -4.3744098322478981 1.403911378374699 12.315130150867475 41 66 98 1.2918288839071925 28 6652 29 6610 26 7255
23385 1.8684562198802226 2.7189198300879021 10.061947921553038 0 0 0 0.95623518823149478 21 6684 28 6680
23386 -6.7833987072054818 2.2294302686056482 12.436429165600106 143 97 74 0.55866155437684506 27 7386 29 6659 28 6702
23388 -3.8072607270376264 2.110637784513707 10.850277964520984 94 75 61 0.80813300538989485 28 6692 29 6664 26 7297 18 6176 25 6681 17 6461
23390 -0.44467032298858217 3.0266594475504305 9.8077096819098344 149 179 216 0.91445730504628342 25 6733 29 6680 26 5345 22 3656 27 3753 30 2528
23392 -0.34943515199263192 3.3441396691618914 8.9910308775639312 157 185 224 0.85223873105545478 21 6820 29 6699 19 5446 20 6589 18 6244
23393 2.1594052350990141 3.8518576571806915 8.283308194377728 39 45 71 1.5574531167414867 21 7576 28 6748 29 6703 30 5049 31 4397
23394 -4.2677000303046961 2.9143333336180772 8.1617674965285207 79 82 89 2.1742053329000055 28 6757 29 6707 30 5030 14 6350
23396 -5.7664167952164727 2.7995179452887688 7.6761926108539216 172 157 149 0.64126353105285394 27 7967 29 6728 23 8085 26 7884 24 7489
23398 1.0828641373421466 4.1250780648116336 7.6283439169903096 105 111 105 0.47370636207917616 13 5808 27 7463 29 6737 23 6899
23399 1.6789221969273596 4.1370962266111713 7.3929383113382752 32 38 35 0.74095506645049292 25 6850 28 6798 29 6741 24 6686
23402 1.1670683837735449 4.1978809238509545 7.4397730556049453 17 24 17 0.41843682303249125 21 6895 25 6891 28 4979 29 6780 26 6717 19 6746
23403 0.7510629397152605 4.050675124005588 7.1687076750926266 22 28 24 0.97438341794200412 25 7572 28 6838 29 6781 23 7615 27 7466
23405 1.3306274561369631 4.3591627296410582 7.3192567099600625 17 22 16 0.48112387684510644 25 6897 29 6789 17 6612 23 7621
23406 1.8054507943372586 4.3247556929378801 7.6964475548609714 18 25 18 0.56336778824537392 21 7631 25 7552 29 6791 23 7588 24 7399 20 7369 18 7045 22 7450
23407 -2.3612895602459498 2.2729080534807284 4.3829456078318785 101 105 106 1.7393748286333046 28 6820 29 6808
23409 -1.9547979440250365 4.094300218314805 7.3637103550795473 107 111 112 0.69116986259592961 27 6876 29 6863 23 7023 25 6972 28 6859
23410 -1.7166715160386306 4.0891534407268884 7.0568346759725893 96 100 99 0.11773654113289279 28 6923 29 6864
23411 -1.5734562386201003 4.1583756320765266 7.1785206412188503 110 114 113 0.32928751697160508 27 7544 28 6222 29 6865 30 5905 31 4520
23413 1.2953873038368422 4.6896577248288676 6.9629695967300975 9 15 11 0.71627473501139682 25 7678 29 6904 23 7678 24 6775 20 6783 22 7525
23414 -0.25070551819870773 4.4934804247018665 6.5342025989734926 8 13 7 0.15785614869420606 28 7002 29 6955
23415 1.1124659114148443 4.9173242081807169 6.7508591569718481 52 56 57 0.019765606478318244 13 5540 29 6968
23416 -2.1063439313085546 4.4035085077115692 6.6687011890089742 104 108 109 0.83476400464045708 27 7711 28 7033 29 6987
23417 -8.9577264896182847 5.616080486654111 9.9421743466679953 125 130 126 0.53441902199058744 27 8111 28 7439 29 7022
23418 -2.5684704056953773 4.825137252673354 6.6388989458922509 149 109 224 0.57500222271779244 21 7898 27 7729 29 7027
23419 -2.0844734177448228 4.9406609593262241 6.4305488551727805 73 74 79 0.91905842644161884 27 7763 29 7028 26 7685 18 7365 17 6884
23420 5.7397951963438354 -0.49179753069919591 8.5695082874518196 20 43 52 1.0513080635644365 25 7257 27 7201 37 7823 29 7063 23 7912
23421 6.0113539536538054 -0.30762898504346886 8.2412236241660892 39 35 36 1.210434457690533 28 7471 33 6509 29 7064
23423 -3.6276030963686083 2.0518475227088269 11.043071913138073 95 72 58 0.72024254384751807 29 7159 30 6656 31 5895
23424 1.4030711202665294 2.4690224667651202 10.189237769110678 86 43 24 0.71052330722240098 21 7505 25 6644 29 7165
23425 -1.4041305819041172 2.5446893933851293 11.488291569080143 66 65 66 0.68459671607165296 25 7976 29 7170
23426 -6.6943150811417569 2.7890965066485602 8.7689416480367068 38 37 42 2.0408293134963316 25 8500 28 7252 29 7207 27 7945 30 5029 31 5501
23427 -6.6776560952411179 3.0397660106933309 8.8914021677142703 193 122 85 1.6930876444209428 27 8279 28 7581 29 7208 26 8173 23 8543 24 8188 21 8560
23428 -0.80365197743860239 4.218173943097514 8.8932339748982905 42 59 152 0.59746211439649111 28 7260 30 6335
23429 0.92693810467176652 3.8951339172625703 7.7597024081617167 95 101 97 0.4086303077199076 13 6162 28 7241 29 7218 26 7858
23430 -6.6390121467800247 3.0143579449882507 7.3507291061063942 104 91 83 1.4233672144156264 27 7589 29 7260 26 7529 30 6724
23431 -1.3404803895701218 4.1795498556876236 7.6053230833120642 4 13 10 0.62779181285467789 28 7313 29 7265 24 7935 22 7947 18 7582 21 8127
23432 -0.4084440833584887 4.1132364083032877 7.4531281421992741 124 130 126 0.41389362139785196 27 7977 29 7270 23 8081
23434 -0.9379013717623258 4.1904143419288555 7.1926661863713495 10 19 14 0.40644316703125749 25 8073 29 7290 17 7136 24 7941 26 7910 18 7583 27 7997 23 8124
23435 -0.94162054423627295 4.1889159498895658 7.1912492339977385 10 19 14 0.081407081253751651 25 8074 29 7291
23436 1.8687666172397885 7.8948486236541848 12.556029660655684 28 32 31 2.3010718304889419 27 8020 29 7295
23440 -1.2482402032127662 4.5664087859692373 6.6050627750401851 88 92 91 0.44143679460985041 25 8129 29 7357 30 6536 31 5744 32 4906
23441 0.33163151781697636 4.8239804954746672 6.6432799159708846 3 9 5 0.44933645442522097 28 7376 29 7363 26 7973 24 7970
23442 3.6846943834220816 5.3041106011527148 5.9871568919602938 68 65 82 0.91156754658126704 25 8114 28 7378 29 7368
23443 4.2823910719286848 5.5486421556739574 6.2089309416087266 82 91 98 0.56589556037243605 21 7066 28 7012 29 7369 26 6894 17 6767 25 7015 16 7044
23444 -1.9047349231773236 4.897433357251435 6.4764042060243252 13 14 15 1.3556900355480874 25 8165 27 8094 29 7406
23445 -3.7601677360665478 -1.46463366860265 8.9413566692024862 124 121 114 2.1977425578996557 28 7837 29 7421
23447 5.8259682767846739 2.4502060040447424 8.7894603772312863 54 57 50 0.73685775057405523 13 6101 33 6591 29 7487 32 5017 40 7361
23448 -3.654528561691273 2.4698606581027871 9.5209475003712818 211 149 125 0.85105516223446864 27 8406 28 7742 29 7509
23449 0.85135944766337712 4.0473634666511931 7.6213650545132978 1 6 2 0.6227559103832474 28 7588 29 7534 27 8271
23450 0.85135944766335292 4.0473634666511717 7.6213650545132605 1 6 2 0.6227559103832746 27 8272 28 7589 29 7535
23451 -1.9881416180023583 3.9075692231676413 8.1581665374219714 59 73 161 0.66210203064172934 25 8351 29 7546 26 8176 18 7851 22 8241 20 8156
23452 -1.452718830512568 3.8970306586638932 8.2233300125384083 50 75 159 0.36749681056287731 28 7584 29 7547 30 6705
23454 -9.1326488591349886 5.4681666388724572 10.285200586136201 35 37 30 0.42136345685381843 27 8331 29 7612 26 8227 25 8409 17 7548 16 7781
23455 3.5795875286152485 1.8695354648430687 11.742155340337307 26 22 23 1.2589381090854124 27 8385 28 7722 29 7693 30 6868 22 8351 18 7980
23456 6.8665701678136895 4.8377599569872407 7.455197657450392 174 180 166 0.99659994735998814 21 8059 25 8321 28 7759 29 7733 24 8162 26 8145 17 7425 16 7872 18 7814 22 8224 23 8507 19 8210
23457 0.15583473251886604 4.0057415097876587 6.8420345370247837 92 97 93 0.039225306218920231 28 7778 29 7757
23458 -8.8614449691001482 5.5882230503555519 10.179770028911925 121 122 120 0.29783116602934029 27 8499 28 7825 29 7778 26 8377
23459 3.540804369936938 1.6341635982790375 11.685500016081086 67 61 65 1.2518353887526374 27 8384 29 7829
23460 -5.1198695923058652 2.8113350337424321 9.5809528544267746 216 115 71 0.81403198325838155 25 8633 27 8556 29 7848 23 8658
23461 -6.7597134789202462 2.7455479663305584 8.6983560681997449 17 24 14 0.85615665404623409 27 8570 28 7902 29 7860
23462 -3.7266481047937465 3.7637959326100683 8.3284082562567701 92 100 103 1.2929095890071205 27 8582 29 7868 23 8680 26 8460 18 8164
23463 -1.6383427956177639 3.967060779630478 7.5049339834486162 105 111 109 0.43623868604848254 33 7072 29 7885 32 5504
23464 -3.9864246078240022 4.579370958528771 6.7624547471893761 148 114 242 0.92158736455468127 25 8692 29 7926 30 7089
23465 -7.0378625856059456 1.5765974746709284 10.069677886039543 59 58 53 1.3520555408575501 28 8049 29 7963 30 6884
23466 -4.6956756015578653 4.0576495049481505 7.3556092244438771 116 107 134 0.62672716952527407 27 8615 29 7988 23 8714 26 8493
23467 2.3646776630460131 4.145325688470118 8.1557551544718105 41 49 88 1.225353906662483 25 8781 27 8669 28 8056 29 8029 23 8776 17 7943 18 8262 22 8636 30 7189
23468 5.578507897732468 5.5053975901741001 6.6947959022850325 39 44 37 0.74296949036538118 13 6755 29 8036 31 6524
23469 4.2417191493300113 0.78049013199824147 9.9850022789678388 109 107 92 0.94525241960836881 27 8778 28 8125 29 8093
23470 -2.97744266868906 4.85024189430119 7.1087364414913674 97 91 197 1.3862543735997084 21 8887 29 8106 30 7262
23472 3.5043093461838013 -3.4863347374215379 9.6802173927267052 172 171 150 1.0883457724741215 21 8936 29 8145 20 8734 22 8820 23 8962
23473 -1.0214067783706657 -2.2558614662593572 10.371908072353381 103 103 105 0.4360787863176756 28 8197 29 8155
23475 5.3664840754291747 1.1610473053983179 9.52604470370418 108 113 122 0.50402919070252683 28 2702 33 3620 19 761 25 876 26 803 27 862 18 4727 21 774 29 2831 24 878
23477 -1.663690302618585 -1.6349830830973602 7.7708488322456679 122 119 122 0.77937747330111062 21 95 24 2620 25 2761 29 2213 9 2911 11 1337 19 132 27 2637 28 2115
23478 -1.5648537138882801 -0.97697738018900959 8.1008098946789957 194 187 187 0.40450832312296436 19 2866 25 2969 27 2842 29 2452 42 2160 46 2523 38 3237 39 4657 36 2652 37 4200 35 3015 3 6011 2 5773 1 4029 33 1757 4 5133 5 4172 7 6058 6 4556 8 5313 9 5511 10 4153 11 2853 12 3063 13 2756 15 2389 14 1977 17 2122 18 2528 28 2354 30 1853
23480 -1.6305624115319586 -2.0178498735380916 7.5649585646629722 42 109 188 1.0746028999012818 10 6358 11 3937 8 6631 13 3840 29 5434 41 3866 37 6575 28 5482 32 3925
