# 3D point list with one line of data per point:
#   POINT3D_ID, X, Y, Z, R, G, B, ERROR, TRACK[] as (IMAGE_ID, POINT2D_IDX)
# Number of points: 315, mean track length: 6.7050480133908907
6401 -2.9249817391470856 1.8620552933890133 7.6901138373051525 135 115 91 0.54595645368663615 36 4806 37 4062 38 3489
6402 -1.588205893360493 1.8396030329400785 7.4700869674252584 192 179 162 1.4778026847691037 37 4069 38 3548 39 3490 41 4637 40 3101
6404 -2.2495809959164532 -0.57004833168759339 5.7824659083389784 56 75 107 1.4703867660639831 36 4849 37 4099 38 3520 39 3461 41 4680 40 3151 42 3606 45 3916 46 3090 47 3035 48 5915 49 4753 44 1716
6406 -1.233417668931666 -0.11812885267749131 5.9335717287787002 177 176 82 1.375662690087984 36 4854 37 4105 35 3536 38 3526 39 3467 40 3157 42 3607 45 3917 46 3092 47 3036 48 5767 49 4558 50 7294 51 6748 44 1718
6407 -1.2335003288394488 -0.11790759159403613 5.9253137956451525 177 176 82 1.0006348560790932 36 4855 37 4106 35 3537 38 3525 39 3466 40 3156 42 3608
6408 0.68615401178600122 -0.16796247719400137 9.7244378530496611 208 197 177 1.4532876804452619 36 4859 37 4108 35 3542 34 4898 33 4568 32 5595 30 3154 29 4358 28 2315 27 2038
6409 -2.7178012193883303 0.65232634913160759 8.2482114698754998 74 94 105 0.89898669171872081 36 4858 37 4109
6411 -1.5803380308665074 1.4549528543877459 7.8223195230251035 128 112 113 1.3274765501935826 36 4868 37 4115 38 3539 39 3477 41 4699
6412 -1.2388647920917546 1.8528063864159545 7.5906374077600578 199 187 165 1.2069986736882261 39 3517 41 4713 40 3181 42 3630 45 3990 46 3184 47 3113 48 5980 49 4773 50 7481 51 6962 44 1741 43 2078
6413 0.84601626606516767 1.5778873689437538 7.8056779046839653 202 191 171 0.66199230867381453 36 4873 37 4122 38 3546
6415 -1.7340123270341468 -2.0698601986006291 4.6577284540905897 120 118 119 1.5103720550472504 36 4883 37 4129 38 3581 39 3505 41 4758 40 3198 42 3689 45 4015 46 3213 47 3153 48 5962 49 4822 50 7519 44 1799 43 2105
6416 -0.79287766903496204 -1.6187624014253148 4.6585652563418947 27 29 52 1.2247600948547239 36 4886 37 4131 38 3557 39 3506 40 3200 42 3596 46 3163 44 1710 48 5894
6418 -3.0093225424148993 1.1492799983266269 7.8823051954133039 210 201 186 1.4626952157805106 36 4862 38 3591 39 3538
6419 -2.3769553347849737 1.2879254128205271 8.6681853919537168 48 57 72 0.76233807919954832 36 4896 37 4140
6420 -2.3769553347849737 1.2879254128205271 8.6681853919537168 48 57 72 0.76233807919954832 36 4897 37 4141
6421 -2.0392116956385027 1.5518856822232978 7.8330416952574033 155 140 121 2.1413231128665151 36 4901 37 4147 38 3537 39 3482 41 4703 40 3171 42 3623 46 3116 47 3053 48 5935 49 4774 50 7485 51 6969 52 5901 44 1738 43 2008 45 3942
6422 -2.0384260097919573 1.5446236350921931 7.8298228210837744 155 140 121 0.93464344715855352 36 4902 37 4148 38 3538 39 3483 41 4704 40 3172 42 3624
6423 -1.7212425440196226 1.5570951689691455 7.9659339526787099 156 143 126 0.91814015875726795 36 4903 37 4150 35 3594 38 3571
6424 -1.7222771533060508 1.557588445230524 7.9991226562989164 156 143 126 0.86663742956726975 36 4904 37 4151 38 3572
6425 -1.5905647297770014 0.60001480649221306 6.6623313237249535 59 72 102 1.5459481898833445 36 4922 37 4165 38 3587 39 3528 45 4020 46 3220 47 3165 44 1778
6426 -1.1310335927715418 1.552749257895192 7.9995955611436314 140 128 106 1.5293296121347233 36 4926 37 4169 35 3617 41 4741 40 3248 42 3668
6427 -1.0105041624056956 1.8981216294117333 7.4961200621843433 195 182 163 1.853789598557934 36 4927 37 4171 35 3621 38 3594 39 3540 41 4774 40 3249 42 3704 45 4061 46 3263 47 3169 48 6018 49 4892 50 7578 51 7078 52 6229 44 1818 43 2153 53 6090
6428 -1.4322650055481199 -1.7318547207832593 4.7577268210850603 23 28 57 1.3050865679777193 36 4932 37 4173 35 3640 38 3598 39 3543 41 4777 40 3252 42 3706 45 4066 46 3269 47 3184 48 6035 49 4905 50 7594 51 7094 52 6240 44 1823 43 2156 53 6101
6429 -1.8521073639683396 -1.2783510825475231 5.0856170269372667 173 168 68 1.9399409844051785 36 4934 37 4175 38 3600 39 3544 41 4779 40 3253 42 3707 45 4068 46 3271 47 3203 48 6037 49 4906 50 7596 51 7095 52 6243
6431 -1.5661364456324882 -0.66607466773507562 5.5441354505568636 91 98 113 1.608855744642566 36 4954 37 4201 34 4970 35 3629 38 3624 39 3565 42 3723 33 4644 32 5675 45 4070 46 3275 47 3206 48 6043 49 4911 50 7601 44 1827 43 2162
6432 -1.1852196665307049 -0.64342000958430234 5.5091994882786377 177 173 164 2.1479357161265287 36 4955 37 4202 35 3644 38 3625 39 3566 41 4803 40 3277 42 3724
6433 -2.232301364792959 -0.35054548721796086 5.91743324159492 58 77 107 2.3503025038735141 36 4956 37 4203 38 3626 39 3567 41 4804 42 3726 33 4647 32 5679 31 4423 40 3278
6434 -1.346265658928858 0.12278668399186109 6.1996653496705729 181 174 164 1.5261553279182765 36 4970 37 4205 34 4988 35 3647 38 3638 39 3582 41 4806 40 3280 42 3728 46 3279 47 3208 48 6064 49 4925 50 7614 51 7121 52 6249 44 1846 43 2183 53 6114
6435 -0.85449573204421092 -1.4062520201043598 4.7917564726505022 21 31 66 1.9541098413966096 36 4962 37 4212 35 3652 38 3619 39 3573 40 3274 42 3736 46 3286 49 4932 41 4813
6438 -2.3420367881181363 -0.98352549014296764 5.4604804018693169 58 76 112 1.6268423598406865 36 4964 37 4215 35 3654 38 3634
6440 -2.3752386860337698 1.0324977024309161 7.3582202363348239 66 74 114 1.1988437358354751 38 3642 39 3585 41 4824 40 3299 45 4086
6441 -0.84360978017864041 -0.86741276473704387 5.2786051708408648 35 43 66 1.9409504338089474 36 4976 37 4227 41 4830 40 3304 42 3749
6442 -1.5053607802619178 -0.27123702545444517 5.8241257508831437 53 70 96 1.6882980805211159 36 4978 37 4228 41 4821 35 3663 38 3649 40 3296
6443 -0.81935372384029148 0.38652331596805961 6.2838029481856577 64 80 95 1.7766945738879658 38 3651 39 3593 41 4832 40 3307 42 3752 47 3234 48 6079 50 7634
6444 -2.165090862925434 0.93761237530683406 7.660794267337188 74 95 107 0.96673093386821374 41 4839 39 3600 40 3315 48 6095
6445 -1.5690222064337462 -1.1700214605776185 5.0930328055079714 45 41 7 0.98668454158365548 9 1276 1 1889 2 1454 3 1451 4 1497 5 2154 6 2310 7 1408 8 1057 10 895 11 1682 37 2263 36 3017 34 3047 35 1653 41 1849 42 1333 33 2270 31 2264 45 1665 49 1274 48 2738 50 2318 51 1651
6446 -1.4557696680823431 0.91745605079227111 6.9015236176502084 157 152 142 1.4731710442120638 9 3843 1 5175 2 4728 3 4486 4 4219 5 4878 6 4974 7 4295 8 3087 10 3315 11 4154 37 4111 36 4863 34 4900 35 3545 38 3529 39 3471 41 4689 40 3068 42 3617 45 3928
6447 -0.7039191551454359 0.87787138385185015 6.6937931862583042 67 70 94 1.2364047505500981 1 3825 3 3275 5 3778 37 3564 36 3955 34 3601 35 1830 39 2535 41 3526 40 1687 33 3282 32 4788 31 3557 30 1908 29 2768 31 2813
6448 -2.5344232962080735 -0.26701390516585732 6.1371232414820849 186 186 180 0.90630148929167487 1 2379 2 1975 3 1916 4 1924 5 2533 6 2713 7 2185 37 2706 36 3517 34 3106 35 2079 38 2218 39 2071 41 2955 40 1611 42 1737 33 2791 45 2526 46 1440 47 1425 49 2345 51 3385
6449 -1.9392102660309265 -1.3565621905432728 5.0500117573973329 197 199 206 1.0447297893166172 9 2017 1 2327 2 1922 3 1866 4 1875 5 2130 6 2263 7 1717 11 2436 3 2339 37 1756 36 2975 34 3015 33 2687 37 2642 31 2220 50 3020 48 2735 52 2176 29 1636
6450 0.064734138981875494 1.5046288490096071 7.8250044971076544 94 82 67 1.0255752663597171 1 3110 2 3496 3 3343 4 3209 5 3868 6 3973 7 3506 8 2292 37 3254 36 4047 34 4138 35 2690 38 2687 39 2203 41 3067 42 1485 33 3847 32 4489 31 3702 28 1749 29 3674
6451 -0.063772013964690413 0.61746275408911377 8.9036733014724661 154 142 119 1.382027602953694 3 3226 4 3662 5 4325 6 4425 7 3947 37 3565 36 3957 34 4024 35 3006 33 3712 32 4807 30 2347 29 3922 14 2869 15 2537
6452 -0.093106950680767686 1.7685811195731624 7.6811980627977121 119 103 87 1.0882888360952019 1 3933 2 3520 3 3380 4 3247 5 3908 9 3340 6 4010 7 4064 8 2771 37 3292 36 4085 34 4534 35 2726 38 2713 39 2232 41 3099 40 1738 33 4246 32 5309 31 4098
6453 -0.84609521898111506 1.9141519631598674 7.5271159668112384 167 156 137 1.4304640196637328 1 2518 2 2132 3 2087 4 2057 5 2676 6 2859 7 2344 9 2279 37 2869 36 3736 34 3740 35 2305 38 2353 39 2245 41 3124 40 1748 33 3020 32 4099 31 2912 29 2502
6454 -2.6173752367650143 -0.27477973429887959 6.1555028822073234 186 185 180 0.90791512208959257 1 2923 2 2517 3 2396 4 2350 5 2991 6 2708 7 2176 9 2088 10 1612 11 2500 12 1307 8 1599 37 3083 36 3513 34 3522 35 2077 38 2549 39 2453 40 1991 42 2230 33 2788 32 3854 31 2695 45 2522 41 2951 46 1438 48 4085 49 2857 50 4069 51 3384 52 2849 30 1520 29 2670 33 3189
6456 -1.2343370935351046 -0.049060347032096024 5.9837032336867502 166 167 45 0.80099388961768192 1 2972 2 2548 3 2444 4 2403 5 3045 6 3179 7 2654 37 3111 36 3914 34 3564 35 2518 38 2589 39 2490 41 3464 40 2025 42 2263 33 3245 32 3909 31 2758 45 2509 30 1555 29 2715
6457 -1.2343051431496392 -0.048948617054553931 5.9836663046114849 166 167 45 0.81176681507508208 1 2973 2 2549 3 2445 4 2404 5 3046 6 3180 7 2655 37 3112 36 3913 34 3563 35 2517 38 2590 39 2489 41 3463 40 2026 42 2262 33 3244 32 3908 31 2757 31 3069 45 2510 46 1430 30 1556 29 2714
6458 -0.073722907470715429 0.54715334871579757 8.9697255384233578 126 111 91 0.85427985415662355 3 3225 4 3102 5 3732 6 3850 7 3381 37 3153 36 3956 34 3609 35 2175 33 3711 32 4357 31 3131 30 1947
6460 -1.0868615539219739 1.3201789529922059 7.1783934024355638 83 79 102 1.1999070663873033 1 3089 2 2677 3 2591 4 2535 5 3177 9 2715 6 3291 7 2796 8 1752 10 2307 11 3220 37 3199 36 3998 34 4062 35 2611 38 2646 39 2569 41 3565 40 2088 42 2364 33 3335 32 4409 45 2623 47 1488 46 1486 48 4196 49 2428 50 4198 52 2344 29 2798 44 1022 43 1292 53 1047
6462 0.15462124527217921 1.6748882487995598 7.7384359917333967 100 86 69 0.5533694768437184 1 3913 2 3506 3 3361 4 3229 5 3884 6 3383 7 2915 8 2332 37 3269 36 4086 34 4153 35 2285 38 2714 39 2214 41 3596 33 3447 32 4536 31 3287 29 3276
6463 -2.0892125194314954 -0.162122925390766 6.1018734282649829 49 46 59 1.2545716791898471 1 2952 2 2531 3 2411 4 2380 5 3010 9 2477 6 3147 7 2625 8 1610 10 2044 11 2963 12 1319 37 3096 36 3896 34 3534 38 2568 39 2471 41 3457 40 2010 42 1769 33 3214 31 2714 45 2518 49 2335 51 3368 52 2273 30 1526 29 2682 28 1131 13 982
6464 -1.7997370808991795 -1.3582890488181141 5.0147992458348902 98 105 163 0.74658907315952572 4 1465 9 1206 5 2132 6 2266 7 1720 10 861 11 1635 37 1746 36 2978 34 2527 39 1201 40 886 42 970 41 2394 45 1649 49 1251
6465 0.10673551650214333 0.48804267548165114 9.00652192761906 125 110 89 1.8048996602402738 4 3654 5 4326 6 4426 7 3948 37 3155 36 4360 34 4014 35 2565 38 2618 33 4127 32 5204
6466 0.19385937261684003 0.31715087472822945 9.2615643358687176 124 108 86 1.7787973364351686 3 3875 4 3649 5 4309 37 3561 36 4351 34 4400 35 3001 38 2989
6467 -2.1645777639709376 1.7271363418139847 7.8170414598740114 187 174 158 0.94373525167521977 9 3194 1 3911 2 3504 3 3358 4 3204 5 3841 6 3940 7 3451 8 2229 10 2741 11 3638 37 3638 36 4021 34 4079 35 3062 38 3072 39 3019 41 4132 40 2616 42 2956 33 3781 32 4855 31 3628 45 3166 30 2378 29 3560 28 1660 43 1604 27 1629
6468 -1.3581669063956483 0.58354602914592335 6.5803193886602251 43 58 78 1.5716358026495805 1 3788 2 3374 3 3893 4 3673 5 3746 9 3131 6 4424 7 3363 8 2631 10 2692 11 3592 37 3530 36 3939 34 3985 35 2536 39 2911 41 4026 40 2498 42 2302 33 3678 32 4329 31 3094 45 3036 46 2536 38 3276 47 1932 48 4877 49 3538 50 5160 51 4496 30 1880 29 2738 44 1224
6469 0.11416928036081249 0.40303011971658476 9.0709617805620812 159 147 123 1.2937035944903268 2 3339 3 3881 4 3647 5 4319 6 4418 7 3929 37 3560 36 4352 34 4398 35 2999 38 2988 33 4119
6470 -2.0099615595366993 0.17060798734860996 6.3525698052372057 180 175 166 1.5274584274008955 1 4492 2 4080 3 3872 4 3640 5 4296 9 3051 6 3790 7 3908 8 2094 10 2610 11 3508 12 2168 37 3829 36 4607 34 4331 35 3257 38 3251 39 3188 41 4403 40 2851 33 4046 32 5128 31 3901 45 3807 46 2522 46 2928 47 2502 48 5467 49 4208 50 6953 51 5569 52 4684 30 2240 29 3426 53 4544 13 1640 14 2105 15 1526 16 2088
6472 -0.15098858944287855 1.4234139124492169 8.0362727212522955 129 117 103 0.95178188659821605 2 4156 3 3952 1 4565 4 4080 5 4734 6 4839 7 4344 8 2997 37 3628 36 4435 34 4729 35 3331 38 3040 33 4416 32 5483 31 4247 30 3014 29 4179 28 2244
6473 0.49363302469195725 0.42467629736701551 9.03919276368166 98 88 73 1.7468583358256571 36 4636 37 3862 1 4955 2 4515 3 4294 34 4688 35 3287 38 3287 39 3220 41 4422 40 2526 33 4367 32 5447 31 4210 43 1814
6474 -0.01355234074581118 1.5362757688768027 7.8205584868880447 118 106 89 1.03183453224642 1 4992 2 4552 3 4343 4 4093 5 4756 6 4996 7 4354 8 3123 37 4067 36 4815 34 4861 35 3504 38 3336 39 3418 41 4462 40 2925 42 3343 33 4425 32 5490 44 1465 43 1852
6475 -2.0279785781557043 2.2315369249488461 7.2248869619312268 109 95 77 1.2867454731895092 1 5033 2 4598 3 4381 4 4124 5 4786 9 3905 6 4876 7 4371 8 3009 10 3374 37 4081 36 4835 34 4754 35 3519 38 3504 39 3443 41 4652 42 3391 33 4434 32 5497 31 4257 45 3872 47 2942 44 1689
6477 -1.6285508817939425 -0.044732152794394152 6.0601070651312012 42 44 56 1.4768547639411291 1 3724 2 3288 3 3143 4 3038 5 3655 9 3053 6 3765 7 3264 8 2074 10 2596 11 3502 12 1742 37 3478 36 4266 34 4310 35 2901 38 2931 39 2863 41 3975 40 2458 42 2807 33 4030 32 4687 31 3429 45 2992 46 1866 47 1880 48 4831 49 3496 50 6142 51 5539 52 4651 30 2224 29 3412 28 1350 53 3432 14 2107 15 1777 16 2089
6478 -0.076681658640713093 1.8659865409273186 7.6015605747251893 129 116 96 1.1909585927351583 9 3753 1 3957 2 3551 3 4012 4 3270 5 4455 6 4577 7 4092 8 2784 37 3678 36 4493 34 4549 35 3127 38 2736 39 3046 41 4137 33 4260 32 5320 31 4110 30 2854 29 4026
6479 -0.032100539061425834 1.6530538942094619 7.7829795617790278 73 61 55 1.7436819684524725 1 5329 2 4871 3 4626 4 4357 5 5004 6 5117 7 4603 8 3194 37 4154 36 4907 34 4946 35 3599 38 3574 39 3515 41 4742 40 3217 42 3669 33 4611 32 5618 33 4587 31 4379 30 3172 29 4287 43 2114
6480 -1.9695658134327458 -0.25498936030748132 6.0032840701740708 29 30 45 1.9498066671011502 36 4767 37 3814 9 3492 1 4945 2 4045 3 3842 3 4283 6 4364 8 2556 10 2989 11 3465 34 4649 35 3440 38 3434 39 3374 41 4391 40 3051 42 3288 33 4324 31 4172 45 3795 12 1704 51 6351
6481 -2.4216993569145826 -0.045737789429816766 6.2938468680178552 47 45 54 0.75748111287474151 2 1996 3 1544 1 2405 4 1596 5 2233 9 1761 6 2427 7 1865 10 960 11 2194 37 2348 36 3104 34 2675 35 1735 38 1951 39 1741 41 2513 41 2983 40 1320 33 2372 32 3008 31 2371 45 2152
6482 -1.5954938952219515 2.0564379158298363 7.3688200156356043 183 174 157 1.8269845439061285 9 4047 5 4970 6 5076 8 3193 37 4124 36 4875 34 4915 35 3564
6484 0.41968430614334112 0.66456452687098955 8.7689175442076532 73 63 51 1.3474681494859222 36 4370 37 3164 1 4514 2 3376 3 3896 4 3665 5 4337 34 4420 35 2584
6485 0.41438194783588361 0.6776264159749722 8.7122209085163131 59 51 42 2.3335296927276281 36 4371 37 3165 4 3666 34 4419 35 2585 31 3595 33 3731 30 2392 29 3595 28 1945
6486 -0.2105863167187049 1.4725571971262654 7.9867479454308121 72 62 49 1.0208590809534765 2 3473 3 3326 1 3869 4 3196 5 3846 6 3968 7 3484 9 3263 8 2276 37 3241 36 4032 34 4120 35 2673 38 2684 33 3833 32 5276 31 4048 30 2799 29 3976 28 1981
6487 -1.6857312242173863 0.73938477132326041 6.7961250234158292 60 62 117 1.7030411008887982 36 4345 34 4374 37 3550 5 3117 1 3027 2 3393 3 2519 4 2466 7 2733 8 1688 10 2203 12 1436 35 2973 38 2986 39 2922 41 4031 40 2523 42 2875 33 3685 32 4761 31 3513 45 3058 46 1929 47 1960 48 4902 49 2896 50 5195 30 2299 29 3088 28 1373 43 1270 13 1049 14 1552
6488 -2.7616121535569986 1.3100830183983863 8.0301398835366395 91 113 127 2.2237865348687764 36 4647 35 3289 38 3313 39 2972
6489 -2.2986650490112108 0.77439108504348264 7.0701059025689865 76 95 110 2.2275086622873226 5 4947 37 4135
6490 -0.91112516376816866 0.87621583641531975 6.7586824582537828 163 156 146 0.97743516299815569 37 494 35 241 33 2013
6491 -2.186813196371836 -1.9600222425297888 4.8404588339689774 116 135 180 0.72891730889677764 34 844 35 293 32 712
6492 -1.2597016675181805 -1.5426998378810159 5.4149864305483453 90 99 171 1.465985121900337 36 847 35 394
6493 -1.8835720408339522 -1.0398732769606782 5.3025372622392757 87 88 100 0.57008538621294891 34 1935 35 413 42 335
6494 -2.071581886765022 0.012962137293620403 6.2380993368841375 149 144 140 1.0591809545458084 37 864 35 448 51 192
6495 -1.9533968617978235 0.13542406878033664 6.371953041001901 130 125 122 0.17305943197032153 37 876 35 460
6496 -1.9999737186945108 0.64744695736655467 6.7850053996218218 113 110 121 0.73001234149980521 34 1462 36 1997 35 497 31 676
6497 -2.0612506324949038 2.3439246375328913 7.0363004445419408 186 173 156 0.58889490108759279 34 1620 37 1643 35 583
6498 -2.3130942107023471 -1.8039233560628261 4.9370589068694297 160 162 162 0.96382053114648181 34 1691 35 625 33 1497 32 2600 48 1921 49 1191 50 2218
6499 -1.2024797205434892 -1.725790729426282 4.7198093099244174 83 93 153 0.933578782479484 34 1761 35 643 33 891 37 1130 32 1788
6502 -2.148172468695428 -1.6117788259080079 4.986943623275998 219 215 212 0.42381724203493309 34 919 35 661 39 693 33 935
6503 -1.9441611992625312 -1.6197395391143448 4.9359469104364946 167 163 162 1.3336764138847828 37 1161 35 674 51 946
6504 -1.9272948013299533 -1.6320935645479686 4.9248553727888345 194 190 189 0.68173799894919929 37 1726 35 675 51 942
6505 -1.4183301476623498 -1.2400276323886994 4.904840471884147 114 118 168 0.27972248169927527 37 1225 35 738
6507 -2.5716615481010896 -0.22664721571203558 6.1970756705144199 196 193 188 0.65858574386697744 37 1353 35 816 39 853 33 578 31 1240 45 1335
6509 -1.7663086727875261 0.05962059991552008 6.2057536995119102 167 163 164 0.18986431496878831 37 1915 35 863 41 2028 45 1339
6511 -1.6300416802569266 0.12442644684869587 6.2225411674135058 81 77 74 0.46048771499635049 34 2133 37 1419 35 885 41 1433 39 889 32 2312
6512 -2.2805748799008443 0.2607829542354333 6.5249504155587736 156 174 174 1.1263770227051619 36 1898 35 897 40 1034 39 1370
6513 -1.8165943853272146 0.30469108095582764 6.4314723992966449 159 168 177 0.661796528747298 37 1462 35 917 39 1382 40 712 33 1931 1 1563 31 1962
6514 -2.0106250204052474 0.40087305622353159 6.5893108882316591 171 178 186 0.6165594632442063 37 1484 35 928 39 935
6515 -2.1488133563877967 0.76365542691331834 6.9270609438259676 95 101 123 0.97601142164670129 37 1526 35 937 39 1408
6517 -0.42530250898469157 1.8092624973922946 7.5666405310951363 168 153 132 1.3728153968917962 37 1045 35 1038 33 1432
6518 -2.1374682972269587 2.2452420791243695 7.1817927929243401 158 146 124 0.88556115386262702 36 2204 37 2108 35 1042
6519 -2.7424712059847596 -1.3393175916081728 5.2750807788187517 183 178 95 0.84671624592474404 37 1753 35 1167 33 1639 45 1238
6520 -1.5856139683188508 -1.2105310524668798 5.0239073960312766 175 177 87 1.4449630744390685 36 2416 35 1188 39 1215 32 2819
6521 -2.0920337381093588 -1.0362035201080975 5.3536521946680855 164 155 179 0.53124080574141086 36 3032 35 1202 33 2285
6522 -1.7569706075769449 -1.0056220578926816 5.2918663753597999 160 158 169 0.24928274483498231 37 1815 35 1207 45 1246 49 1318
6523 -1.5002716296349301 -1.0058244434992509 5.2172819042418919 164 171 197 0.77661408626922546 34 2590 35 1211 39 1662 40 1250
6524 -1.0438995540283447 -0.91409738827980158 5.5025157653588268 53 67 94 1.8728900238270352 34 1971 36 2490 35 1215
6525 -1.6155779546893689 -0.47791475504438341 5.6978208420191203 56 70 96 1.4454752626791907 3 1082 35 1235 33 2339
6526 -1.7401880116190287 -0.45743820550013475 5.7523882991289632 122 122 127 1.0983972482665836 3 1076 37 1861 35 1242 38 1567 41 1937 45 1308 49 1397 51 1769
6527 -1.7395060729421772 -0.4607496888195084 5.759331009236444 122 122 127 1.1753746657141932 37 1862 35 1243 38 1568 41 1938 45 1309
6528 -0.95668278029986753 -0.38730644875854559 5.6004053075625997 73 77 86 0.27392902494840832 3 1106 34 2651 35 1262
6529 -0.98720268546535661 -0.35561555289220459 5.6425423095621943 152 164 165 0.86576891793387745 34 2052 35 1263 33 1849 32 2997 31 1247
6530 -2.5968438721036731 0.0034402958910265502 6.4339993012976855 196 191 188 0.72987657623036917 34 2672 35 1281 38 1607 33 1857
6531 -1.3242306184793762 -0.097511529312509823 5.9293005237958019 177 176 94 0.39474099345933084 37 2355 35 1291 33 1873
6532 -2.6026331989869322 0.067321194250557673 6.4570945721210338 103 99 96 1.3931836922801686 34 2077 35 1294 31 1258
6533 -2.3704904707042411 0.061762114541030172 6.3577736437084589 183 178 172 0.890232317634848 36 2581 35 1304 40 1001
6534 -1.6710552511177694 0.015485337899116488 6.1678898634162289 46 41 37 0.46204910296746621 37 2373 35 1323
6535 -2.1362565616052738 0.30226131090716268 6.5132617192546514 173 181 192 0.506042206266612 34 2729 35 1340 33 1921
6536 -2.477799590918965 0.35358865206100543 6.6461421312800244 168 177 194 0.77977500348272522 36 2631 35 1347 33 1917
6537 -2.0512093419910769 0.38943957971431675 6.5643631869299943 160 174 187 0.47854160790749395 34 2743 37 1971 35 1354 45 1830
6538 -2.0526535196237687 0.39022592108492204 6.5680751998372964 160 174 187 0.69202462089061678 34 2742 36 2648 35 1355 38 1663 39 1393 32 3076 33 1285
6539 -1.8484512364281938 0.35484935159525527 6.4435567676133623 69 83 95 0.10834650131754471 34 2737 37 1960 35 1360
6540 -2.0953370423493705 0.44760961453447828 6.6067390533349748 80 92 103 0.99136058467665933 37 1972 35 1370 38 1668 39 1805 41 2575 33 2440
6541 -2.1211804640912799 0.66319240542182412 6.8257427076217638 148 151 168 0.3673021538600274 37 1993 35 1384 33 1961 31 1349 32 3099 45 1472
6542 -2.0352667418742247 0.62658442927171576 6.7565194480216366 73 78 115 0.46142980678814788 34 2759 35 1385 39 1402 33 1962
6543 -2.1219664666711382 0.74531315061573911 6.8994996664816961 161 168 187 0.7807616692568865 34 2766 37 1994 35 1390 39 1810 41 2111 33 1968 32 3104 31 1994
6544 -1.3386523903181462 0.62323820618219639 6.5525137947132244 164 157 148 1.5723195198964486 37 2001 33 2874 34 3187 29 1969
6545 -2.3696287663708504 0.9359675150069251 7.1295810301311642 156 153 163 1.0517595601728991 37 2018 35 1406 39 1429 38 1691 41 2597 40 1073
6546 -1.7292889716540616 0.80715799479993933 6.8446511955606928 139 146 162 0.69567117532861644 37 2010 35 1409 51 1341
6547 -2.2375409904292618 1.0404066778187993 7.1731748051780837 154 151 160 1.4425712121295777 34 2792 35 1415 38 1705
6548 -0.98378272949708023 0.89418621759434724 6.7697807446654208 163 157 145 0.91232676604276242 36 3203 35 1420 40 1071
6549 -2.134362822390802 1.1387309531281897 7.257111754851584 148 156 158 1.0787847293217647 37 2037 35 1425 39 1003
6550 -2.4071680719666282 1.5647178230540157 7.7913357108597383 108 96 84 0.73183924071457396 34 2831 37 2062 35 1449 41 2172 33 2516
6551 -2.0847772094707526 1.5889094406284519 7.8813361089111957 143 131 115 1.1963489880940155 37 2476 35 1454 41 2637 39 1856 40 1411 42 1499
6552 -0.63933656661479576 1.6986639800502141 7.4372425771484769 135 122 103 0.77855316663838015 36 2811 35 1482 38 1739 40 1096 41 2187 42 832
6553 -0.24958494083671648 1.7766979103648195 7.6806129793020732 140 127 108 0.49282204085804598 34 2899 35 1490 33 2578
6554 -1.670486630866105 2.1031965807844997 7.3462693866744706 193 178 159 0.55238459067562484 34 2909 35 1498 33 2575 31 2550
6555 0.70327084623487301 1.6913072151989637 7.6781415143956524 163 148 125 0.29404428179742231 34 3371 35 1504 33 3067 29 3310
6556 -0.55803422972306616 2.090456775653192 7.3499579744657799 172 159 140 0.83926584068116716 36 2872 35 1521 39 1502
6557 -1.5430567062309668 -1.9849008367538401 4.6616655515224492 89 87 107 0.67605917207433031 36 3392 35 1541 51 2249
6558 -1.2464744323179664 -1.8438402305602299 4.65651285224767 58 71 137 2.150164369504588 37 2154 35 1550 39 1541 38 1411 41 1715 40 805 42 1248
6559 -1.7563366785270682 -1.7576515594864486 4.8188660771441159 185 183 188 0.83954226392987541 37 2178 35 1564 39 1570 45 1992
6560 -1.7016436543025768 -1.7534222121399241 4.8005706057373256 163 163 175 1.4663626164143684 37 2180 35 1566 43 767
6561 -2.2553637460942513 -1.6914608056395002 4.9739708970544845 217 216 214 0.77978240480431626 34 2982 35 1570 32 3309 33 2174 31 2170
6562 -2.2553637460942513 -1.6914608056395002 4.9739708970544845 217 216 214 0.77978240480431626 34 2983 35 1571 33 2173 32 3310 31 2171
6563 -1.9340334274639099 -1.7126720068207768 4.8899987982821989 188 189 190 1.0906003954745722 37 2193 35 1575 45 2009 51 2279 29 991 30 676
6564 -1.8810376325604763 -1.7067644558411208 4.8785043407819462 189 189 197 0.76704896981714832 37 2195 35 1576 45 2010 51 1570 29 992 30 681
6566 -1.6452765565812781 -1.6868533741037082 4.8299329419527401 172 176 90 0.45637229557556114 37 2621 35 1578 45 1995
6568 -1.9779361411670686 -1.5553897552526412 4.9706397587511031 106 105 103 0.62792183796987466 34 3003 37 2209 35 1590 39 2002 40 1546 33 2672 32 3785
6569 -1.9575905522029851 -1.3919145262902584 5.0447866597116056 188 190 205 0.40733907932066371 34 2523 37 2222 35 1607
6571 -2.5593419790995919 -1.2940258211836408 5.270440368512034 157 154 82 0.89690715612929928 37 2241 35 1628 39 1629 41 2413 40 1224 42 1342 33 2243 31 1674 45 2075 46 1034 48 2784 49 1757
6572 -2.559362826361836 -1.2936503285654632 5.2704433496178575 157 154 82 0.85820051961449761 37 2242 35 1629 39 1630 40 1223 41 2414 42 1343 33 2244 31 1675 45 2074 48 2785 49 1758
6574 -2.3658557138803951 -1.2358441747166451 5.2803486557450201 180 180 92 0.99636477622983544 37 2254 35 1639 39 1632
6575 -2.3658557138803951 -1.2358441747166451 5.2803486557450201 180 180 92 0.99636477622983544 37 2255 35 1640 39 1631
6577 -2.3949754998380706 -1.2215145797839568 5.2859048605042469 69 62 18 0.72670753756315931 34 3033 37 2252 35 1642 38 2177 39 2026 41 2927 40 1580 42 1697 33 2252 46 1042
6578 -1.4497798811145723 -1.22191623239353 5.047206481592716 171 169 65 2.2374990404071493 3 1444 35 1647 33 2272
6579 -0.92176817325595517 -1.1233909204589227 4.7197990966838086 50 56 90 1.004146656877779 37 1785 35 1649
6580 -2.5764743541811082 -0.25024983058935119 6.1688990163983961 70 68 71 0.58756561084262482 34 3105 35 1712 33 2343 32 3490 31 2341 30 848 29 1847
6581 -1.614409552488957 -0.16176727071010524 5.960760288276151 89 85 84 0.69351159069177781 34 2666 37 2338 35 1726
6582 -1.614409552488957 -0.16176727071010524 5.960760288276151 89 85 84 0.69351159069177781 34 2667 37 2337 35 1727
6585 -1.5549091716838497 -0.099233968643401699 6.0226258945220996 77 73 70 1.9297109810492805 37 2354 35 1745 38 1944 39 1729 31 2392
6586 -2.2606134749154325 0.10297910479253242 6.3756157110361729 74 68 70 0.62201092498329691 34 3151 35 1750 32 3895 31 2399 30 1230
6587 -2.2564383426776553 0.048475890306726034 6.3244927435188636 192 187 180 1.167497141390917 36 3116 35 1751 38 1623 39 1752
6588 -2.1578534392842577 0.11138681640881955 6.353536435172872 63 57 57 1.1251004540642493 34 3153 37 2766 35 1754 45 2562
6589 -1.845221940870803 0.089464511041059486 6.2325498016305012 183 178 172 1.1536499558867548 34 3157 35 1762 33 2411 41 2027 31 1936
6591 -1.8993529691015745 0.13917017560003678 6.3095688635165503 186 182 179 1.1241723731334516 37 2385 35 1769 39 1776 41 2540 40 1354 42 1454 48 2947 50 2538 51 1847 49 1927
6592 -2.2208470587315499 0.23093023417802441 6.5058692025645506 80 97 117 0.55777843037071451 37 2402 35 1783 38 1985 6 2071
6593 -2.2352979202198409 0.26398212610163391 6.4949356231580397 153 169 178 0.19975644913180143 37 2403 35 1784 39 1795
6594 -2.6212666889300178 0.35911678242446615 6.7042772122502905 93 106 119 0.77110611092822812 36 3157 35 1791 39 1798
6595 -2.1698727286874719 0.38243317405355431 6.5895924856919974 161 171 179 0.40905969925208641 37 2420 35 1795 33 2436 32 3577
6596 -1.6942153422643029 0.41148219530563684 6.4766209668625976 76 89 101 0.14990294714903415 34 3577 35 1804 32 3928
6597 -2.3213925385010237 0.95807281613492767 7.1215180745610276 148 149 169 0.72914463884992342 37 2440 35 1824 38 2003 39 1816
6598 -1.0153142658753258 0.84534685043308566 6.7514281222799708 169 163 151 2.0871129026526107 34 2797 37 2023 35 1827 39 1424 45 1838
6599 -2.3940769272672719 1.2203986732476875 7.3870352573494289 154 151 158 1.7314340381014615 35 1837 40 1398 37 2458 42 1482 41 2614 44 659
6600 -1.1867987509456477 1.2058216902706689 7.0864468186321128 92 99 117 0.51903279412808645 34 3229 37 2463 35 1845 38 2013 36 3221
6601 -0.77700393891417097 1.1275374009843364 6.9485283099930362 143 140 134 0.68403560395841989 37 1561 35 1846 41 2141 42 818 31 2838
6602 -2.3714973079206962 1.725687497369806 7.8432455941087831 169 156 137 0.86337459093452062 34 3252 35 1873 33 2528 32 3999
6603 -2.1246905481687346 1.8534457746912487 7.6793862595040947 180 169 151 0.90457030167045449 34 3285 35 1880 39 2225
6604 -1.0635969152619826 1.6882388949473421 7.6128517848445449 156 140 125 1.5453071314357587 36 3275 35 1882 38 2325 39 2610 41 3617 40 2130
6605 -2.7869520210501624 2.0543294993638299 7.4642868673032998 199 186 169 0.86333005134988972 34 3279 37 2514 35 1891 38 2343
6606 -2.6630979957352618 2.0857469557106763 7.3899640403974356 179 166 147 0.95456294766459526 34 3685 35 1892 33 3392 32 4437 31 3199
6607 -2.1028643072547117 1.9935433155878977 7.5548911926104934 184 169 150 1.429047381630991 37 2519 35 1895 38 1748 36 2179 39 1490 41 2196 40 767
6608 -0.92243818412379774 1.7081262058273425 7.6178778328778947 149 136 120 2.1189855096554293 36 3294 35 1898 33 2557 34 2878 31 2531 30 1337
6609 -0.14842075620870546 1.7432781022827084 7.7050264968777595 129 117 95 0.9956673783226746 34 3323 35 1907 38 1746 33 3023 32 4101 31 3285 30 1696 29 3261
6610 0.093786445337136037 1.621915427845054 7.7254803378486656 94 79 60 0.80961407594513146 36 3696 35 1909 33 3024
6612 0.018484794322530817 1.7445958732169355 7.667926167987364 184 172 150 0.87418943094468904 37 2523 35 1923 41 1624
6614 0.5309469705695905 1.6662986592927294 7.7436701926614715 155 143 121 1.9365210278649032 34 3346 36 3311 35 1929
6616 0.48867647844890549 1.7681241638489862 7.5610835778215106 194 182 160 0.74903634317530454 34 3367 37 2877 35 1942 38 2043 32 4151 33 3065
6618 -1.813323843614657 2.3595125534044916 7.0617786069802611 166 155 137 0.9429168863188232 34 3384 35 1946 32 4136
6619 -0.83367724437822022 2.0983270954859066 7.2775276372880091 222 211 193 0.56731706313509567 34 3357 35 1947 33 2613 32 4144 31 2573
6620 0.45110651941247715 1.8781327691661605 7.4980927131623485 200 188 166 1.3101021983008831 36 3346 35 1952 38 1761
6621 0.47705838079908386 1.8896642883752355 7.4725378185355336 167 152 131 0.16419896004489928 36 2851 37 2112 35 1953
6622 -0.18422359878647301 2.0957708409197799 7.1954056373669921 180 167 148 1.543952031063093 37 2943 35 1962 38 2079 41 2678
6623 -2.0714977689987624 -2.0190694604602277 4.7746173581228444 188 198 191 0.71341066018356891 34 3406 35 1979 33 2633 32 3758 36 3389 31 2594 48 3290
6624 -2.0163729741422336 -2.0205983827423957 4.7632042091998041 195 200 190 1.1429880934388867 37 2592 35 1980 39 1953 40 1884
6625 -2.2611315098471332 -1.9580371570129853 4.855755319224329 110 141 169 1.1884307392068565 36 3396 35 1984 38 2103 39 2349 41 3357 45 2398 49 2745 48 3959 50 4991
6626 -0.89507568716953423 -1.854242141111621 4.6231421050841188 71 79 143 1.3097244421077054 3 1809 34 3420 35 1995
6627 -1.9992665694514227 -1.7778389812826878 4.8725860141855657 199 203 205 0.53656045282872034 37 2603 35 1997 45 2407
6628 -2.3754570481147348 -1.7072214957993557 5.0118492390704219 202 213 213 0.64860717057746475 36 3813 35 1999 33 2652 32 3305 31 2610
6629 -2.334882625659866 -1.7362876512161167 4.9940868282179194 150 150 175 1.6998768935593915 34 2981 35 2001 33 3102 31 2611
6630 -2.0882761041621749 -1.7117032530460869 4.94137511592408 138 139 160 0.67056284088207263 34 3421 35 2006 33 3108
6631 -2.0690172901407369 -1.6715069134200726 4.9420450937221068 214 210 209 0.17342868173914691 34 3426 35 2007 32 3774 31 2616
6632 -1.6043342992019227 -1.693739001449944 4.8186440319875121 70 62 48 1.131864750068065 34 2988 37 2622 35 2015 45 2412 49 2164 48 3951 50 3843
6633 -2.0140508222543079 -1.5650155491690889 4.9761327157917679 222 218 215 0.79268485788738197 34 3435 35 2022 32 3783 33 2670 50 3876 49 2185
6635 -1.3666967725892001 -1.1364952388622562 5.0687532052952218 186 189 83 1.0280861804342627 37 2669 35 2053 38 2191 33 2729 32 3827 45 2058 49 1701
6636 -1.0114503358074984 -1.081115641593285 4.9996896566493811 142 146 66 0.74627761745850307 37 2686 35 2064 39 2044 45 2050 49 1682 48 2698 50 3008 51 1634 52 1724
6637 -1.0110369850257956 -1.0822533543232822 4.9999730122328181 142 146 66 0.59273481621400914 37 2685 35 2065 39 2045 45 2049
6638 -1.8156887797411527 -0.80021085707265449 5.4895521515553281 65 77 114 1.2712060217010739 37 3071 35 2069 33 3171 31 2680 45 2483
6639 -1.8267918712923699 -0.45454870754524634 5.7746016663238189 84 89 126 0.4472094767816065 34 3516 37 2695 35 2074 39 2063 40 1603 33 2778 32 3852 31 2690 30 1161 29 2667
6640 -1.871992266818238 -0.41507981411166689 5.8110801647749257 63 75 107 1.1529781459186446 37 2696 35 2075 31 2330
6641 -1.6945947143949194 -0.37537434699755701 5.7169070838935703 60 77 103 0.3458878948528229 37 2697 35 2076
6645 -1.822114276682087 -0.21697291512100539 5.9511360618366069 75 70 91 0.66276559008702951 34 3119 35 2091 33 2808
6646 -2.1877559143828225 -0.12680195288314866 6.1637357281466318 192 188 179 0.10985198325507536 37 2723 35 2101
6648 -1.6931309513111201 -0.15857410741048567 5.9997881036698875 64 60 57 1.1116543111028743 34 3541 35 2104 42 1747 33 3220
6649 -1.3098676683325705 -0.15088603447143709 5.9101643875621752 179 176 93 1.061421185742476 37 2735 35 2113 45 2498 46 1066 42 1753 47 1045 48 3414 49 2299 50 4009 51 2459
6651 -2.4156075980897254 0.089226483207201474 6.4024259254799354 186 183 178 0.78214214706476048 36 3559 35 2131 38 2252 39 2128 41 2998 42 1808 33 2837 32 3536 45 2570 46 1125 47 1103 49 2398 48 3488 50 4122
6652 -1.8983235922157535 0.088664243698266795 6.2681518100528768 185 180 176 0.78755265955786413 37 2769 35 2141 38 2256 45 2170
6654 -2.5860986545865612 0.34021229846759299 6.6842115566608653 160 179 178 0.97857968791685956 37 3133 35 2150 31 2768 32 3924
6655 -2.2258758721684537 0.63610606816273996 6.8240706399880793 69 80 135 1.7008984652266363 34 3583 37 3136 35 2159 39 2513 41 3507 33 3258 31 3086
6656 0.18587920835080207 0.65491633274756789 8.7378500301740587 115 100 77 0.34781096177187271 34 3626 36 3612 35 2176
6657 0.37960610995083605 0.60492978530371189 8.8111783881766943 157 142 119 1.0473049777563956 36 3971 35 2177 33 3312 32 4379 31 3164 30 2370 29 3158 28 1679 27 1665
6659 -2.7675102643280529 1.5345813417975043 7.9632822730132986 174 162 138 1.6620686672888534 37 3194 35 2193 38 2659 39 2578 41 3089 40 2122
6660 -2.7218882895321284 1.5733880894413201 7.9896815535388903 134 118 105 1.8178226484073836 34 3223 35 2207 33 2918
6661 -0.30332523298863129 1.2677415610419693 8.1689948318840457 122 113 98 0.57886561839565498 34 4088 36 3250 35 2222 33 3783 32 4866 31 3660 30 2784 29 3949 28 1960
6662 -0.34971872257220904 1.3229828425375119 7.9779045056533411 70 62 49 1.3509325601850217 34 4087 35 2223 33 4179 32 5475 31 4237 30 3008 29 4168 28 2138
6663 0.36854863192472359 1.1403465311135434 8.2867737919088764 121 106 85 0.92545092723424693 34 3666 37 2809 35 2224 33 3360 32 4461 30 1654 31 2876 29 2846 28 1216
6664 -2.4086523959535531 1.7830296826605097 7.7511788510383948 184 171 152 0.80429889728826165 34 3656 37 3247 35 2228
6665 -1.6678958296221 1.609513182117986 7.6586360097264379 149 137 121 0.857568035779533 36 3659 35 2230 38 2316 37 2822
6666 -3.1233509161509545 2.0908583209267166 7.5294132341323063 207 195 173 1.1368013378866832 34 3683 35 2242 39 2661 40 2186 41 3174 42 1948
6667 -1.5335048684170611 1.7628877451837619 7.7287789754349685 127 110 90 1.3699944911041526 34 3694 36 3271 35 2245 42 1506 41 3105
6669 -1.4217519789436577 1.8446285732537839 7.5262801596920985 173 157 134 0.70563130008294017 34 3714 36 3293 35 2264
6670 0.57210112486152909 1.4787246854799403 7.8969288074451178 128 113 90 1.484294812653641 34 4139 37 2840 35 2270 33 3877 32 4943 31 3741 30 2842
6671 0.56329928561997056 1.4759959693337223 7.8653256745645175 128 113 90 0.72244176826027617 37 2841 35 2271 39 2205 40 1401
6672 -2.2433891604826002 2.1125526415308671 7.3470594529152242 208 195 176 0.82433307536121392 36 3723 35 2272 33 2993 34 3709 32 4073 31 2878
6673 -2.1032642790438563 2.0546847014976768 7.3573965018201033 169 156 137 0.52393376738086084 34 3711 35 2274 33 3843 32 5269 31 4039
6674 -1.8834930018947584 2.0950085276288424 7.4044244717254948 206 195 177 0.60751136295849073 34 3733 38 2755
6675 0.41851721667365371 1.6361293009157709 7.7362120643767183 154 139 118 0.95127532267684956 34 3748 36 3309 37 2511 35 2289 33 3470 32 4541 31 3291 30 2498 29 3280
6676 0.41769809160552068 1.6366989036013209 7.7551650321502974 154 139 118 0.94539950853936838 34 3749 35 2290 33 3471
6677 -2.8397639695592272 2.3710004014699182 7.1713211532295889 167 154 135 0.89870595330324832 34 3327 35 2293 33 3008
6678 -2.805233782606392 2.3001373831620469 7.2201993693369664 215 204 184 0.38750301609334215 34 3726 37 2903 35 2295
6679 -2.7532746886815196 2.2860153102045477 7.2354511262644676 161 146 125 1.1529371976982437 34 3730 37 2907 35 2296 33 3415 31 3219
6680 -2.7045529106590709 2.3238119912264024 7.1384571916005184 215 202 183 1.7290387249198442 34 3731 37 3329 35 2299
6681 -1.8609458410643138 2.1553533471365016 7.3514592014130749 203 191 175 0.96571764657859094 37 3320 35 2303 38 2771 41 3697 42 2483
6682 0.52031966949348363 1.6320982076151813 7.721723075415877 142 130 108 1.6197375433757291 34 3769 37 2857 35 2315 38 2330 39 2218 41 3083 40 1729
6683 -2.7128073980180383 2.3783380215456451 7.1267358062540609 178 163 142 1.1964152544127171 37 2932 35 2318 41 3230 45 2346
6684 -2.6728624772744602 2.4039657332837847 7.1807102679943533 207 194 175 1.5920248954143841 34 3753 35 2320 33 3458
6685 -0.37925238698192171 1.9266508157740199 7.4397885344389403 217 205 183 0.70486409524732707 36 3740 35 2332 38 2378 33 3466 32 4534
6686 -2.2384882601375198 2.435273884005293 6.9480682473489779 157 142 123 0.62409514707593305 34 3799 35 2340 33 3477 32 4525
6687 -2.2338104942148482 2.4336849714604019 6.9324281407495913 157 142 123 0.87763264713405997 34 3800 35 2341 33 3478 32 4524 31 3729
6689 -1.3056213978353401 2.2620023611185962 7.144322647133178 177 165 149 1.3225882760521168 34 3807 37 3353 35 2345 39 2320 41 3182 40 1798
6690 0.44937932194049168 1.9062511386944445 7.4918504914820154 198 185 166 0.97435971983178682 36 3347 37 2929 35 2350 38 2053
6691 -0.94879180401580288 2.2391019423443828 7.0915930034765164 212 201 183 1.0958778161198006 37 2954 35 2362 39 2310 41 2718 40 1109 42 1537 45 2264
6692 -2.298332927720721 -2.2440747390159572 4.6888848658118647 196 194 194 0.27769920832723594 34 3391 35 2371 33 3075 32 4179 31 2952
6695 -2.325553235613687 -2.0842519929571295 4.8008098503897365 132 170 209 2.014366119038101 37 2977 35 2384 49 3392 51 5419
6696 -1.5846897850320676 -1.9790812503907815 4.6748040489629155 186 181 187 0.62449252088699758 34 3828 35 2391 51 4272
6697 -1.0192177610081494 -1.9324648212796083 4.5994469337420885 72 83 153 1.8100536275466095 35 2396 38 2456 40 1897 48 3896 47 1276 51 4253
6699 -2.2376109127574422 -1.8010794231538161 4.9245737284472444 196 198 196 1.0776083830333807 37 2996 35 2403 39 2358 40 1908 42 2135 45 2907 46 1345 47 1318 49 2748 51 4302
6701 -1.8616692302761484 -1.6180613905426684 4.9154441894247221 133 131 136 0.8256855108677158 34 3854 37 3017 35 2417 30 1779 29 2982 27 1337
6703 -0.60267695001598975 -1.9585088203348326 5.6927819525920587 216 217 203 2.4429810090491708 34 4231 35 2433 33 3540 14 3100 31 3786
6704 -1.4620952348233924 -1.196331295900972 5.0535865776566142 56 50 30 0.80445576646401251 34 3471 37 3058 35 2456 32 4247 30 1480 29 2632 28 1075
6705 -1.5338964245586812 -0.44579712072241773 5.7151393668259161 144 150 162 1.0694545030711942 36 3885 35 2479 33 3188
6706 -1.5304077908559763 -0.4125516337418707 5.729181184238513 155 164 176 1.2033465514698281 37 3079 35 2481 38 2545 39 2447
6707 -2.6107373705985171 -0.22172915983097313 6.2009089431500302 193 191 178 0.97804578175389989 34 3923 37 3465 35 2485 39 2846 33 3195 32 4276 31 3037 51 4481 50 5141 30 1521 29 2276
6708 -2.5350969620178434 -0.22196532590201767 6.1730293678137418 193 190 185 0.8343266251069904 37 3084 35 2486 39 2455 41 3440 40 1992 33 3196 32 3859 30 1180 29 2278
6709 -2.1133856056899551 -0.21557158105182436 6.0757181957014303 190 185 181 0.87493048932487782 37 3087 35 2488 45 2516 46 1433 42 2233 47 1412 48 4073
6710 -2.3050441721982193 0.057664099624131777 6.3477023560577743 191 186 182 0.68526881776444126 36 3916 35 2513 33 3224 31 3058
6711 -4.3895646732522096 0.40736113271649205 9.5741739711436917 182 171 151 0.47997359191841577 34 3975 35 2531 33 3254
6712 -0.026659974331650856 -0.29583223642843026 9.9000961584844678 193 180 161 0.91299697947265879 34 3986 35 2538 33 3664 32 4333 31 3099 30 1900 29 3507 28 1636 27 1614 26 1845
6713 0.44294222189690774 -0.48270456986365423 10.031029008504246 194 181 162 1.3777982591251101 34 4368 35 2539 33 4088 32 5177 31 3950 30 2314 29 3900 28 2105 27 1938 26 1951
6716 0.30743646208870046 0.51117195478087907 8.9557560821255553 137 122 99 1.6510302824497405 34 4026 36 4361 35 2573 33 3715 32 4378 31 3146 30 2368 28 1678
6717 -0.12601313485070831 0.7448558545706615 8.8037811539200685 117 102 81 1.1046863676912946 34 4417 36 3970 35 2583
6719 -1.0866340081555723 1.3261464038305688 7.1741859627868667 80 75 94 0.6721000072536969 36 3999 35 2612 33 3336 34 4063 32 4410
6720 -0.7061739618623869 1.2588767366778195 7.0650444897829656 164 162 150 1.2613249750346547 36 4003 35 2615 39 2175 41 3043
6721 0.33235918645580331 0.93563111853693248 8.4891022570933465 153 138 117 0.32498960561561996 34 3653 35 2617 33 3773 32 4846 30 2408 29 3615
6723 -0.69779424253010958 1.3931384238953826 7.1693970255520529 170 161 152 0.91232942839108133 36 4017 37 2816 35 2634 38 2311 34 3663 39 2192 41 3056 40 1705 43 1066
6724 -0.87205215751125775 1.6225347238116221 7.5226598108427698 166 152 139 1.8456261988659954 34 4115 36 3678 35 2668 33 3828
6725 -2.3969843568895821 2.0075916300068024 7.5205183676654253 145 132 115 1.2363525540205005 37 3281 35 2678 39 2670 41 3678 40 2195 45 3226 49 3065 51 4790 43 1332
6726 -1.9839020139797845 1.8974479501822734 7.6430289144700128 126 111 92 1.272221866863597 36 4055 35 2683 38 2705 33 3819 32 4889 31 3655 30 2781 29 3586 28 1930
6727 -1.9430560980577281 1.8855406563128474 7.6786414860263283 205 190 169 1.7648875952162826 36 4056 35 2684 33 3820 32 4447 31 3656 30 2001 29 3178
6728 -2.1293565021692791 2.0708658144538465 7.2666687648068757 218 205 186 0.5729213462607875 34 4132 35 2697 33 3842 32 4905
6729 -1.165920216616164 1.8928766944770197 7.5364736698200501 186 173 154 0.6512956388493123 36 4080 35 2702 38 2350 40 1744 42 1893 32 4926
6730 -2.7010105913009617 2.4384970793796841 7.0052884627673935 166 151 132 0.59282561287250291 34 3776 35 2728 33 3456
6731 -2.2806940602593437 2.3589019617875975 6.9610538884880979 208 195 178 1.1956515491433684 34 4169 37 3717 35 2730 33 3881 32 4952 31 3706
6732 -2.1711890428117635 2.2597647712125082 7.1434601223320193 199 186 167 0.50365113451813615 34 4158 36 4116 35 2732 33 3430 32 4502 31 3246
6733 -1.8691424405656307 2.2079275165127235 7.3404687956658172 159 146 127 0.73820360173943989 36 4118 35 2735 38 2789 37 3685 39 2703 41 3698 40 2666 42 2503
6734 -1.4526239872339601 2.1244085016042469 7.2774888669664799 157 144 127 0.5983813506077269 36 4123 35 2739 38 2063
6735 -0.2961660824454681 1.9768252063213023 7.3592811199671546 230 219 199 1.2605354526079864 34 4178 37 3326 35 2742 32 4989
6736 -2.5327208420807921 2.446617429338632 6.944700900651851 171 156 135 0.435954872876406 34 4165 35 2749 33 3879
6738 -1.8353484962310371 2.3278152490984869 7.1114929126739987 208 196 180 0.51137671999191769 34 3781 35 2754 33 3481 32 4531 31 3283
6739 -1.7837977081931176 2.3312671421413418 7.1512214585427696 126 113 97 1.0413915291177451 34 4173 37 3351 35 2755 33 4256
6740 -1.7801101817387894 2.3270940630879031 7.1158163920904158 126 113 97 0.1893555093547469 34 4174 37 3352 35 2756
6741 -1.3471965604951135 2.2700425319021837 7.1368318345312387 209 197 181 1.8226835185299812 34 3806 35 2757 32 4141 31 3298 30 2486
6743 0.50176869465738627 1.844425427462034 7.5008080286515915 208 193 172 0.68935856167419685 37 3314 35 2766 38 2361
6744 -2.3873785047733849 2.5150609373793738 6.9346297005233399 222 211 193 0.43226086959181992 34 4553 35 2770 33 3894
6745 -0.97901481888131336 2.2633411511429866 7.0399704040114051 136 121 102 0.65677736864358038 37 3355 35 2775 39 2717
6746 -0.40821004631854368 2.1142526286670522 7.2594595664897179 195 182 165 1.2689658636767538 37 3710 35 2778 39 3069 41 4186 42 2977 49 3622 48 4976 50 6266
6748 -1.5087754148921386 -2.0549162257716715 4.610307920940115 182 188 176 1.0827819461151431 34 4206 37 3737 35 2789 41 4299 42 3193 31 3320 32 4589 45 3363 46 2369 47 2363 49 3365 50 5997 51 5397
6751 -2.2900614008117106 -1.9259507544282111 4.8796629024091924 201 206 194 0.42546710320604869 34 3830 35 2802 33 3515 32 4591 31 3323
6752 -0.56182637229211685 -1.9005078258680448 5.6939229149048254 152 148 162 0.73644550876800052 34 3872 36 3849 35 2827
6754 -2.1004452961696631 -0.76744161347651818 5.5789197184146779 59 82 115 0.97830772482627038 34 3905 35 2860 39 2827 40 2421 32 4649
6761 -1.9302658518977516 0.3065224588017742 6.5023615201378888 168 173 179 0.59346098326054286 34 4343 37 3502 35 2930
6762 -1.9664150653048627 0.42656534715287586 6.5444959356352372 149 158 167 0.26582873525943101 36 4304 35 2940 39 2898
6763 -1.9664150653048627 0.42656534715287586 6.5444959356352372 149 158 167 0.26582873525943101 36 4303 35 2941 39 2899
6764 -1.6342130001740014 0.44240163054194448 6.5473886866766584 146 156 166 1.6579471791091853 36 4312 35 2949 40 2494 33 3652
6765 -1.6342130001740014 0.44240163054194448 6.5473886866766584 146 156 166 1.6579471791091853 36 4313 35 2950 40 2493 33 3653
6766 -0.047769221021152518 -0.42183008339473105 9.9601452620167876 188 176 154 0.40297150947620108 34 4362 35 2955 33 3663 32 5168 31 3938
6767 -2.0714172411802987 0.65138897611159352 6.8021977462506582 169 170 168 1.2618709640585219 34 3984 37 3533 35 2961 38 2606 39 2515 41 3509 40 2050 42 2869 33 3661 32 4736 45 2591 46 1938 47 1972 48 4176 50 5215 51 4571 52 3797
6769 -1.6457859000027311 0.799798571645152 6.787962077698106 136 140 151 1.0626414529458088 36 4347 35 2981 32 5185 31 3953 30 2705 29 3493 28 1623
6770 -3.7782990116087909 1.0468990004827681 8.8699070038940118 168 156 142 0.9286376577200719 34 4675 35 2984 33 4095
6771 -3.7440781646068539 1.2077950541497038 8.5670765874693835 179 170 153 0.32248068876995822 34 4388 35 2994 33 4103 32 5191 31 3957
6772 -3.3686773058604338 1.2235522751685242 8.5326943426531336 175 166 151 2.0962409863475462 34 4010 35 3003 39 2963 41 4088 40 2562 42 2922 45 3581 46 2634 47 2599 44 1268
6773 -1.2165506539687154 1.1397656560102618 7.0238425709580978 77 91 119 1.0490542017174975 34 4415 37 3576 35 3010 39 2951 40 2556 42 2895 32 4801 33 3720 31 3567 30 1938 29 3518 28 1391
6774 -2.5817943851488852 1.5264999810255504 7.8067129647686446 91 80 75 1.8457029564345311 34 4042 37 3595 35 3027 33 3738 32 4815 31 3564
6776 -1.65280807649682 1.5516671733149687 7.8210106342067469 182 169 152 1.2952189873065245 36 4422 35 3050 38 3061 37 3219 39 2598 41 4110 40 2111
6777 -3.3044343779482208 1.9325880964105828 7.7264173102257514 138 121 101 0.69544259691137122 34 4077 35 3056 33 3756
6778 -3.0780262280199997 1.8853706845120755 7.6398248671343367 172 157 136 0.27400784095679986 34 4452 35 3057 33 3757 32 4835 31 3600
6779 -3.0129671203967061 1.9057511383668604 7.6382184421983936 210 199 179 1.4988829683171778 34 4078 35 3058 31 3169 32 4403
6781 -1.4835011559596452 1.7861964432455943 7.6902075149079732 205 192 175 1.9297758756697645 34 4486 36 4468 35 3086 38 2708 39 2629 41 3106
6782 -1.9210668791422634 2.0654248618783386 7.4019929392644803 183 172 154 0.37739817404255244 37 3302 35 3094 38 2753
